5.58501 5.58388 5.58274 5.5816 5.58046 5.57932 5.57819 5.40772 5.40676 5.4058 5.40484 5.40387 5.40291 5.40195 5.40099 5.40003 5.39907 5.39811 5.39715 5.39619 5.39523 5.39427 5.39332 5.39236 5.3914 5.39044 5.38949 5.38853 5.38757 5.38662 5.38566 5.38471 5.38375 5.38251 5.37985 5.38559 5.3974 5.40927 5.42119 5.43316 5.44519 5.45726 5.4694 5.48158 5.49382 5.50612 5.51847 5.53087 5.54421 5.55784 5.57153 5.76167 5.73375 5.72019 5.7328 5.74547 5.75819 5.77097 5.78382 5.79672 5.80967 5.82269 5.86391 5.87187 5.87984 5.88784 5.89586 5.9039 5.91196 5.92004 5.92773 5.93462 5.94154 5.94846 5.95541 5.96236 5.96934 5.97633 5.98334 5.99037 5.99741 6.00447 6.01154 6.01863 6.02574 6.03286 6.04001 6.04716 6.14823 6.26614 6.32224 13.1246 13.1482 6.1245 6.1385 6.15257 6.16671 6.1809 6.19517 6.2095 6.22389 6.23836 6.25289 6.26749 6.28215 6.29689 13.8397 12.6319 11.8076 11.8727 11.9431 12.0144 12.0865 12.1595 12.2334 12.3081 12.3839 12.4605 12.5381 12.6167 12.6834 12.7414 12.8 12.859 12.9187 12.9789 13.0396 13.101 13.1629 13.2655 13.4624 20 20 20 20 15.2162 15.2763 20 20 20 12.7914 12.9353 13.0824 13.2329 13.387 13.5446 13.706 13.8713 14.0407 14.2142 20 20 20 20 7.59737 20 20 20 20 20 20 20 20 20 20 20 20 20 20 20 20 20 20 20 20 20 20 20 20 6.86215 6.87158 6.88104 6.89052 6.90003 6.90957 6.91913 6.92872 6.93833 6.94797 6.95764 6.96733 6.97706 6.98681 6.99658 7.00639 7.01622 7.02608 7.03596 7.04588 7.05582 7.06579 7.07579 7.08582 7.09587 7.10596 7.11607 7.12621 7.13638 7.14658 7.15681 7.16707 7.17736 2.23334 2.22874 2.22415 2.21959 2.21504 2.21051 2.20461 2.19632 2.1881 2.18731 2.1871 2.18688 2.18667 2.18645 2.18624 2.18602 2.18581 2.1854 2.18408 2.18276 2.18144 2.18013 2.17881 2.18048 2.18406 2.18766 2.19127 2.19489 2.19852 2.20198 2.20401 2.20604 2.20808 2.21013 2.233 2.26129 7.57993 7.59144 7.60299 7.61456 7.62618 7.63783 7.64951 7.66123 7.67299 7.68478 7.69661 7.70848 7.72038 7.73232 7.7443 7.75631 7.76836 7.78045 7.79257 7.80474 7.81694 7.82918 13.5646 13.5737 13.5828 13.5918 13.6009 13.61 13.5903 13.5504 13.5106 13.4711 13.4318 13.3927 13.6741 13.6833 13.6925 13.7017 13.711 13.7202 13.7295 13.7387 13.748 13.7573 13.7666 13.776 13.7853 13.7967 13.8164 13.8361 13.8558 13.8756 13.8955 13.9155 13.9354 13.9555 13.9756 13.9958 14.016 14.0363 14.0566 14.0756 14.0362 13.9971 13.9581 20 14.805 14.7353 14.6662 14.5978 14.53 14.4629 14.3964 14.3304 14.2651 14.2004 14.1363 14.0727 14.0097 13.9473 11.5726 11.5454 11.5183 11.4913 11.4645 11.4394 11.4372 11.435 11.4329 11.4307 11.4285 11.4264 11.4242 11.422 11.4199 11.4177 11.4085 11.3993 11.39 11.4173 11.452 11.2723 11.3022 11.3323 11.3626 11.393 11.4236 11.4543 11.4852 11.5163 11.5475 11.5789 11.6105 11.6423 11.6742 11.7063 11.7386 11.7711 11.8037 11.8366 11.8696 11.9028 11.9361 11.9697 12.0035 12.0374 12.0715 12.1059 12.1404 20 20 20 20 20 20 20 20 20 13.0097 12.9904 12.331 12.2833 12.3002 12.3262 12.8951 12.8762 12.8574 12.8386 12.8198 12.8012 12.7825 12.764 12.7455
5.58707 5.58593 5.58479 5.58365 5.58251 5.58138 5.58024 5.40923 5.40827 5.4073 5.40634 5.40538 5.40442 5.40346 5.40249 5.40153 5.40057 5.39961 5.39865 5.39769 5.39673 5.39577 5.39481 5.39386 5.3929 5.39194 5.39098 5.39003 5.38907 5.38811 5.38716 5.3862 5.38524 5.38336 5.3807 5.38801 5.39984 5.41171 5.42364 5.43563 5.44766 5.45975 5.47189 5.48409 5.49634 5.50865 5.52101 5.53343 5.5459 5.55843 5.57185 5.76878 5.74079 5.71733 5.72993 5.74259 5.7553 5.76806 5.78089 5.79378 5.80672 5.81973 5.86173 5.86968 5.87765 5.88564 5.89365 5.90075 5.90758 5.91443 5.9213 5.92817 5.93507 5.94198 5.94891 5.95586 5.96282 5.96979 5.97679 5.9838 5.99082 5.99786 6.00492 6.012 6.01909 6.0262 6.03333 6.07176 6.20235 6.30378 13.0909 13.1144 13.1379 13.1615 13.1852 6.14374 6.15783 6.17198 6.18621 6.2005 6.21485 6.22927 6.24376 6.25831 6.27294 13.4517 13.742 13.8115 11.8013 11.8709 11.9413 12.0126 12.0847 12.1577 12.2315 12.3063 12.382 12.4586 12.5362 12.6147 12.6683 12.7262 12.7846 12.8435 12.903 12.9631 13.0237 13.0849 13.1466 13.209 13.2719 13.4519 20 20 20 15.1712 15.2309 15.2911 20 20 12.7671 12.9104 13.057 13.2069 13.3603 13.5174 13.6781 13.8428 14.0114 14.1842 20 20 20 7.38284 20 20 20 20 20 20 20 20 20 20 20 20 20 20 20 20 20 20 20 20 20 20 20 20 20 20 6.85643 6.86584 6.87528 6.88475 6.89424 6.90376 6.91331 6.92288 6.93248 6.9421 6.95175 6.96143 6.97114 6.98087 6.99063 7.00042 7.01023 7.02007 7.02994 7.03984 7.04977 7.05972 7.0697 7.07971 7.08975 7.09982 7.10991 7.12004 7.13019 7.14037 7.15058 7.16082 2.23336 2.22876 2.22417 2.2196 2.21506 2.21053 2.20439 2.19611 2.18789 2.18732 2.18711 2.18689 2.18668 2.18646 2.18625 2.18603 2.18582 2.1853 2.18398 2.18266 2.18135 2.18003 2.17872 2.18049 2.18408 2.18767 2.19128 2.1949 2.19853 2.20187 2.2039 2.20594 2.20798 2.21002 2.23358 2.26094 7.5615 7.57295 7.58444 7.59596 7.60751 7.61911 7.63073 7.6424 7.6541 7.66583 7.6776 7.68941 7.70125 7.71313 7.72505 7.737 7.74899 7.76102 7.77309 7.78519 7.79733 7.80951 7.82173 7.83398 13.5676 13.5767 13.5857 13.5948 13.5609 13.5211 13.4815 13.4421 13.403 13.6495 13.6587 13.6679 13.6771 13.6863 13.6955 13.7047 13.714 13.7232 13.7325 13.7418 13.7511 13.7604 13.7697 13.779 13.7884 13.7977 13.8071 13.8164 13.8258 13.8352 13.8447 13.864 13.8839 13.9038 13.9237 13.9437 13.9638 13.9839 14.0041 13.9843 13.9455 14.8173 14.7475 14.6783 14.6098 14.5419 14.4747 14.4081 14.342 14.2766 14.2118 14.1475 14.0839 14.0208 13.9582 13.8963 20 20 11.5766 11.5494 11.5223 11.4954 11.4433 11.4411 11.439 11.4368 11.4346 11.4325 11.4303 11.4282 11.426 11.4238 11.4217 11.4139 11.4047 11.3954 11.3862 11.4438 11.2676 11.2975 11.3275 11.3578 11.3882 11.4187 11.4494 11.4803 11.5114 11.5426 11.574 11.6055 11.6373 11.6692 11.7012 11.7335 11.7659 11.7986 11.8313 11.8643 11.8975 11.9308 11.9644 11.9981 12.032 12.0661 12.1004 12.135 20 20 20 20 20 20 20 20 12.9963 12.372 12.3239 12.2784 12.3044 12.3305 12.882 12.8631 12.8443 12.8256 12.8069 12.7883 12.7697 12.7511 12.7327
5.58913 5.58799 5.58685 5.58571 5.58457 5.58343 5.58229 5.41074 5.40977 5.40881 5.40785 5.40688 5.40592 5.40496 5.404 5.40304 5.40207 5.40111 5.40015 5.39919 5.39823 5.39727 5.39631 5.39535 5.3944 5.39344 5.39248 5.39152 5.39056 5.38961 5.38865 5.38769 5.38674 5.38421 5.38155 5.39043 5.40227 5.41416 5.4261 5.43809 5.45014 5.46224 5.47439 5.4866 5.49886 5.51118 5.52356 5.53598 5.54847 5.56101 5.57361 5.58626 5.74785 5.72006 5.72707 5.73971 5.7524 5.76516 5.77797 5.79085 5.80378 5.81677 5.85955 5.86726 5.87402 5.88079 5.88757 5.89438 5.90119 5.90803 5.91488 5.92174 5.92862 5.93552 5.94243 5.94936 5.95631 5.96327 5.97024 5.97724 5.98425 5.99128 5.99832 6.00538 6.01246 6.01955 6.02666 6.12453 6.25742 18.814 18.824 13.1041 13.1276 13.1512 13.1749 13.1986 6.14897 6.16309 6.17727 6.19152 6.20583 6.22021 6.23466 6.24917 6.26375 13.5779 13.6457 13.7143 13.7835 11.8692 11.9396 12.0108 12.0829 12.1558 12.2297 12.3044 12.3801 12.4567 12.5342 12.6127 12.6923 12.711 12.7693 12.8281 12.8874 12.9473 13.0078 13.0688 13.1304 13.1926 13.2554 13.3188 13.4414 20 20 20 15.1858 15.2457 15.306 20 12.7429 12.8857 13.0317 13.181 13.3338 13.4902 13.6504 13.8143 13.9823 14.1543 14.3307 20 20 20 20 20 20 20 20 20 20 20 20 20 20 20 20 20 20 20 20 20 20 20 20 20 20 14.3242 14.4574 20 6.84134 6.85071 6.86011 6.86953 6.87899 6.88846 6.89797 6.90749 6.91705 6.92663 6.93624 6.94588 6.95554 6.96523 6.97494 6.98469 6.99446 7.00426 7.01408 7.02393 7.03381 7.04372 7.05366 7.06362 7.07362 7.08364 7.09369 7.10377 7.11387 7.12401 7.13417 7.14437 2.23338 2.22877 2.22419 2.21962 2.21507 2.21054 2.20417 2.1959 2.18768 2.18733 2.18712 2.1869 2.18669 2.18647 2.18626 2.18604 2.18583 2.18521 2.18389 2.18257 2.18125 2.17993 2.17862 2.18051 2.18409 2.18769 2.1913 2.19492 2.19855 2.20177 2.2038 2.20583 2.20787 2.20992 2.23416 2.26059 7.54315 7.55454 7.56598 7.57744 7.58894 7.60048 7.61205 7.62365 7.6353 7.64697 7.65869 7.67043 7.68222 7.69404 7.7059 7.71779 7.72972 7.74169 7.7537 7.76574 7.77782 7.78994 7.80209 7.81429 7.82652 7.83879 13.5706 13.5715 13.5316 13.4919 13.4525 13.4133 13.3744 13.6342 13.6434 13.6525 13.6617 13.6709 13.6801 13.6893 13.6985 13.7077 13.717 13.7262 13.7355 13.7448 13.7541 13.7634 13.7727 13.7821 13.7914 13.8008 13.8101 13.8195 13.8289 13.8383 13.8477 13.8572 13.8666 13.8761 13.8856 13.895 13.912 13.932 13.9328 13.9721 14.6905 14.6219 14.5539 14.4865 14.4198 14.3536 14.2881 14.2232 14.1588 14.095 14.0319 13.9692 13.9071 15.3375 15.3192 15.3009 15.2826 15.2644 11.5807 11.5535 11.5264 11.4994 11.4451 11.4429 11.4408 11.4386 11.4364 11.4343 11.4321 11.4299 11.4278 11.4256 11.4193 11.4101 11.4008 11.3916 11.3973 11.2629 11.2927 11.3228 11.353 11.3833 11.4139 11.4446 11.4754 11.5064 11.5376 11.569 11.6005 11.6322 11.6641 11.6962 11.7284 11.7608 11.7934 11.8262 11.8591 11.8922 11.9256 11.9591 11.9928 12.0267 12.0607 12.095 12.1295 20 20 20 20 20 20 20 20 12.3648 12.3168 12.2827 12.3087 12.3348 12.8689 12.8501 12.8313 12.8126 12.794 12.7754 12.7568 12.7383 12.7199
5.59119 5.59005 5.58891 5.58777 5.58663 5.58549 5.58435 5.41225 5.41128 5.41032 5.40935 5.40839 5.40743 5.40646 5.4055 5.40454 5.40358 5.40262 5.40165 5.40069 5.39973 5.39877 5.39781 5.39685 5.3959 5.39494 5.39398 5.39302 5.39206 5.3911 5.39015 5.38919 5.38772 5.38506 5.3824 5.39286 5.40471 5.4166 5.42856 5.44056 5.45262 5.46473 5.47689 5.48911 5.50139 5.51372 5.5261 5.53854 5.55104 5.56359 5.5762 5.58879 5.59874 5.60872 5.61874 5.73683 5.74952 5.76226 5.77506 5.78792 5.80083 5.81381 5.85423 5.86096 5.8677 5.87446 5.88123 5.88801 5.89482 5.90163 5.90847 5.91532 5.92218 5.92907 5.93597 5.94288 5.94981 5.95676 5.96372 5.9707 5.97769 5.9847 5.99173 5.99878 6.00584 6.01292 6.04865 6.17823 6.30996 18.7829 18.7929 18.8029 13.1173 13.1409 13.1645 13.1882 13.212 6.15422 6.16836 6.18257 6.19684 6.21118 6.22558 6.24005 6.25459 13.4839 13.5508 13.6183 13.6866 11.8675 11.9378 12.009 12.0811 12.154 12.2278 12.3026 12.3782 12.4548 12.5323 12.6108 12.6903 12.6958 12.754 12.8126 12.8718 12.9316 12.9919 13.0528 13.1142 13.1763 13.2389 13.3021 13.366 13.4309 20 20 15.141 15.2005 15.2604 15.3208 12.7188 12.861 13.0065 13.1552 13.3074 13.4632 13.6227 13.786 13.9532 14.1246 7.90939 20 20 20 20 20 20 20 20 20 20 20 20 20 20 20 20 20 13.0398 13.15 13.2622 13.3763 13.4924 13.6105 13.7307 13.853 13.9775 14.1043 14.2334 14.3649 13.6873 6.83565 6.845 6.85439 6.8638 6.87323 6.88269 6.89218 6.90169 6.91123 6.9208 6.93039 6.94001 6.94966 6.95933 6.96903 6.97875 6.98851 6.99829 7.0081 7.01794 7.0278 7.03769 7.04761 7.05756 7.06753 7.07754 7.08757 7.09763 7.10772 7.11784 7.12798 2.23339 2.22879 2.2242 2.21964 2.21509 2.21056 2.20396 2.19568 2.18756 2.18734 2.18713 2.18691 2.1867 2.18648 2.18627 2.18605 2.18584 2.18511 2.18379 2.18247 2.18115 2.17984 2.17852 2.18052 2.18411 2.1877 2.19131 2.19493 2.19856 2.20166 2.20369 2.20573 2.20777 2.20981 2.23474 2.26025 7.52489 7.53623 7.54761 7.55902 7.57046 7.58194 7.59345 7.605 7.61659 7.62821 7.63986 7.65155 7.66328 7.67504 7.68684 7.69868 7.71055 7.72246 7.73441 7.74639 7.75841 7.77046 7.78256 7.79469 7.80686 7.81907 7.83132 7.8436 13.5024 13.4629 13.4237 13.3846 13.6098 13.619 13.6281 13.6372 13.6464 13.6555 13.6647 13.6739 13.6831 13.6923 13.7015 13.7108 13.72 13.7293 13.7386 13.7478 13.7571 13.7664 13.7758 13.7851 13.7945 13.8038 13.8132 13.8226 13.832 13.8414 13.8508 13.8603 13.8697 13.8792 13.8887 13.8981 13.9077 13.9172 13.9267 14.5658 14.4983 14.4315 14.3652 14.2996 14.2346 14.1701 14.1063 14.043 13.9802 13.9181 15.3005 15.2822 15.264 15.2459 15.2278 15.2097 15.1916 15.1736 11.5848 11.5575 11.5304 11.5034 11.4469 11.4447 11.4426 11.4404 11.4382 11.4361 11.4339 11.4317 11.4296 11.4247 11.4155 11.4062 11.397 11.3878 11.2581 11.288 11.318 11.3482 11.3785 11.409 11.4397 11.4705 11.5015 11.5327 11.564 11.5955 11.6272 11.6591 11.6911 11.7233 11.7557 11.7882 11.821 11.8539 11.887 11.9203 11.9538 11.9874 12.0213 12.0553 12.0896 12.124 20 20 20 20 20 20 20 12.3577 12.3097 12.287 12.313 12.3392 12.8559 12.8371 12.8184 12.7997 12.7811 12.7625 12.744 12.7255 12.7071
5.59325 5.59211 5.59097 5.58983 5.58869 5.58754 5.5864 5.41376 5.41279 5.41183 5.41086 5.4099 5.40893 5.40797 5.40701 5.40604 5.40508 5.40412 5.40316 5.4022 5.40124 5.40027 5.39931 5.39835 5.39739 5.39644 5.39548 5.39452 5.39356 5.3926 5.39164 5.39069 5.38858 5.38591 5.38348 5.39529 5.40714 5.41905 5.43102 5.44303 5.4551 5.46722 5.4794 5.49163 5.50391 5.51626 5.52865 5.5411 5.55361 5.56618 5.5788 5.59053 5.60048 5.61047 5.62049 5.63055 5.64065 5.75936 5.77214 5.78499 5.79789 5.81086 5.84796 5.85467 5.86139 5.86814 5.87489 5.88167 5.88845 5.89526 5.90208 5.90891 5.91576 5.92263 5.92951 5.93641 5.94333 5.95026 5.95721 5.96417 5.97115 5.97815 5.98516 5.99219 5.99923 6.0063 6.10102 6.23288 18.7419 18.7519 18.7618 18.7718 18.7817 13.1306 13.1542 13.1779 13.2016 13.2255 6.15948 6.17364 6.18787 6.20217 6.21653 6.23096 18.9021 18.9122 13.4571 13.5237 13.591 11.8657 11.9361 12.0073 12.0793 12.1522 12.226 12.3007 12.3763 12.4529 12.5304 12.6088 12.6883 12.7688 12.7387 12.7972 12.8563 12.9159 12.9761 13.0368 13.0981 13.16 13.2225 13.2855 13.3492 13.4135 20 20 20 15.1556 15.2152 15.2752 12.6948 12.8365 12.9814 13.1295 13.2812 13.4363 13.5951 13.7578 13.9243 7.67714 14.2699 20 20 20 20 20 20 20 20 20 20 20 20 20 20 20 20 12.7945 12.8573 12.9645 13.0735 13.1843 13.2971 13.4118 13.5285 13.6472 13.7681 13.8911 14.0163 14.1438 13.686 13.6228 6.82996 6.83931 6.84867 6.85807 6.86749 6.87693 6.8864 6.8959 6.90542 6.91497 6.92455 6.93415 6.94378 6.95344 6.96312 6.97283 6.98257 6.99234 7.00213 7.01195 7.02179 7.03167 7.04157 7.0515 7.06146 7.07145 7.08146 7.0915 7.10158 7.11168 2.23341 2.22881 2.22422 2.21965 2.21511 2.21058 2.20374 2.19547 2.18757 2.18736 2.18714 2.18692 2.18671 2.18649 2.18628 2.18606 2.18585 2.18501 2.18369 2.18237 2.18106 2.17974 2.17843 2.18054 2.18412 2.18772 2.19132 2.19494 2.19858 2.20156 2.20359 2.20562 2.20766 2.2097 2.23532 2.2599 7.50672 7.518 7.52932 7.54068 7.55207 7.56349 7.57495 7.58644 7.59797 7.60953 7.62113 7.63277 7.64444 7.65614 7.66788 7.67966 7.69147 7.70332 7.71521 7.72713 7.73909 7.75109 7.76312 7.77519 7.7873 7.79945 7.81164 7.82386 7.83612 7.84842 13.3949 13.5855 13.5946 13.6037 13.6128 13.6219 13.6311 13.6402 13.6494 13.6585 13.6677 13.6769 13.6861 13.6953 13.7045 13.7138 13.723 13.7323 13.7416 13.7509 13.7602 13.7695 13.7788 13.7882 13.7975 13.8069 13.8163 13.8257 13.8351 13.8445 13.8539 13.8633 13.8728 13.8823 13.8918 13.9012 13.9108 13.9203 14.4432 14.3769 14.3111 14.246 14.1814 14.1175 14.0541 13.9913 13.929 15.2637 15.2455 15.2274 15.2093 15.1913 15.1733 15.1553 15.1374 15.1196 15.1017 15.084 15.0662 11.5616 11.5345 11.4509 11.4487 11.4465 11.4444 11.4422 11.44 11.4379 11.4357 11.4335 11.4302 11.4209 11.4116 11.4024 11.3932 11.2534 11.2833 11.3133 11.3434 11.3737 11.4042 11.4348 11.4656 11.4966 11.5278 11.5591 11.5905 11.6222 11.654 11.686 11.7182 11.7505 11.7831 11.8158 11.8487 11.8817 11.915 11.9484 11.9821 12.0159 12.0499 12.0842 12.1186 20 20 20 20 20 20 12.3506 12.3026 12.2801 12.3173 12.3435 12.8429 12.8241 12.8054 12.7868 12.7682 12.7497 12.7312 11.8286 11.8309
5.59532 5.59417 5.59303 5.59189 5.59074 5.5896 5.58846 5.41527 5.4143 5.41333 5.41237 5.41141 5.41044 5.40948 5.40851 5.40755 5.40659 5.40562 5.40466 5.4037 5.40274 5.40178 5.40082 5.39986 5.3989 5.39794 5.39698 5.39602 5.39506 5.3941 5.39314 5.3921 5.38943 5.38677 5.3859 5.39772 5.40958 5.4215 5.43348 5.4455 5.45758 5.46972 5.4819 5.49415 5.50644 5.5188 5.5312 5.54367 5.55619 5.56876 5.5814 5.59226 5.60222 5.61222 5.62225 5.63231 5.64241 5.65255 5.66273 5.67294 5.79495 5.8079 5.82091 5.84839 5.8551 5.86183 5.86857 5.87533 5.8821 5.88889 5.8957 5.90252 5.90936 5.91621 5.92307 5.92996 5.93686 5.94378 5.95071 5.95766 5.96462 5.9716 5.9786 5.98561 5.99264 6.02572 6.15431 6.27701 18.7111 18.721 18.7309 18.7408 18.7507 18.7607 13.1439 13.1675 13.1912 13.215 13.2389 13.2629 6.17894 6.19319 6.20751 6.2219 18.8707 18.9346 18.9274 13.4305 13.4968 13.5638 11.9343 12.0055 12.0775 12.1504 12.2242 12.2988 12.3744 12.4509 12.5284 12.6069 12.6863 12.7668 12.7235 12.7819 12.8408 12.9003 12.9603 13.0209 13.082 13.1438 13.2061 13.269 13.3325 13.3966 13.4613 20 20 15.1109 15.1702 15.2299 15.29 12.812 12.9563 13.104 13.255 13.4095 13.5677 13.7297 7.45814 14.0655 14.2396 20 20 20 20 20 20 20 20 20 20 20 20 20 20 20 20 20 12.8064 12.8363 12.8901 12.9978 13.1074 13.2188 13.3322 13.4475 13.5648 13.6842 13.8057 13.9293 14.0553 13.6215 13.5589 6.82429 6.83362 6.84297 6.85235 6.86175 6.87118 6.88064 6.89012 6.89963 6.90916 6.91872 6.92831 6.93792 6.94756 6.95723 6.96692 6.97664 6.98639 6.99617 7.00597 7.0158 7.02566 7.03554 7.04545 7.0554 7.06537 7.07536 7.08539 7.09544 2.23343 2.22882 2.22424 2.21967 2.21512 2.21059 2.20353 2.19526 2.18758 2.18737 2.18715 2.18694 2.18672 2.1865 2.18629 2.18607 2.18586 2.18492 2.1836 2.18228 2.18096 2.17965 2.17833 2.18055 2.18414 2.18773 2.19134 2.19496 2.19859 2.20145 2.20348 2.20552 2.20756 2.2096 2.2359 2.25956 7.48863 7.49987 7.51113 7.52243 7.53377 7.54513 7.55654 7.56797 7.57945 7.59095 7.60249 7.61407 7.62568 7.63733 7.64901 7.66073 7.67249 7.68428 7.69611 7.70797 7.71987 7.73181 7.74378 7.7558 7.76784 7.77993 7.79206 7.80422 7.81642 7.82866 7.84093 7.85325 13.5794 13.5885 13.5976 13.6067 13.6158 13.6249 13.6341 13.6432 13.6524 13.6615 13.6707 13.6799 13.6891 13.6983 13.7076 13.7168 13.7261 13.7353 13.7446 13.7539 13.7632 13.7725 13.7819 13.7912 13.8006 13.8099 13.8193 13.8287 13.8381 13.8476 13.857 13.8664 13.8759 13.8854 13.8949 13.9044 13.9139 14.3227 14.2574 14.1928 14.1287 14.0652 14.0023 13.9399 15.227 15.2089 15.1909 15.1729 15.155 15.1371 15.1192 15.1014 15.0836 15.0659 15.0482 15.0305 15.0129 14.9953 14.9778 11.5657 11.5385 11.4527 11.4505 11.4483 11.4462 11.444 11.4418 11.4396 11.4375 11.4353 11.4263 11.4171 11.4078 11.3986 11.2487 11.2785 11.3085 11.3386 11.3689 11.3994 11.43 11.4608 11.4917 11.5228 11.5541 11.5855 11.6172 11.649 11.6809 11.7131 11.7454 11.7779 11.8106 11.8434 11.8765 11.9097 11.9431 11.9768 12.0106 12.0446 12.0787 12.1131 20 20 20 20 20 12.3439 12.3102 12.2766 12.2851 12.3281 12.8299 12.8111 12.7925 12.7739 12.7554 12.7369 11.8116 11.8139 11.8162
5.59738 5.59624 5.59509 5.59395 5.59281 5.59166 5.41774 5.41678 5.41581 5.41484 5.41388 5.41291 5.41195 5.41098 5.41002 5.40906 5.40809 5.40713 5.40617 5.4052 5.40424 5.40328 5.40232 5.40136 5.4004 5.39944 5.39848 5.39752 5.39656 5.3956 5.39464 5.39295 5.39028 5.38762 5.38832 5.40015 5.41203 5.42396 5.43594 5.44798 5.46007 5.47222 5.48441 5.49667 5.50897 5.52134 5.53376 5.54623 5.55876 5.57135 5.584 5.594 5.60396 5.61396 5.624 5.63407 5.64418 5.65433 5.66451 5.67473 5.68498 5.69527 5.7056 5.84213 5.84883 5.85554 5.86227 5.86901 5.87577 5.88254 5.88933 5.89614 5.90296 5.9098 5.91665 5.92352 5.9304 5.93731 5.94422 5.95116 5.95811 5.96507 5.97205 5.97905 5.98607 6.07769 6.20296 18.6704 18.6803 18.6902 18.7 18.7099 18.7198 18.7297 18.7397 13.1572 13.1808 13.2046 13.2285 13.2524 13.2765 6.18424 6.19851 6.21286 18.8394 18.9024 18.8952 18.888 13.4039 13.47 11.9326 12.0037 12.0757 12.1486 12.2223 12.297 12.3725 12.449 12.5265 12.6049 12.6843 12.7647 12.8462 12.7666 12.8253 12.8847 12.9445 13.005 13.066 13.1276 13.1897 13.2525 13.3158 13.3798 13.4444 20 20 20 15.1254 15.1848 15.2446 12.7876 12.9314 13.0785 13.2289 13.3828 13.5404 7.25129 13.8669 14.0361 14.2096 20 20 20 20 20 20 20 20 20 20 20 12.0912 20 20 20 20 20 20 12.8184 12.8484 12.8785 12.923 13.0313 13.1415 13.2535 13.3674 13.4833 13.6013 13.7213 13.8435 13.6202 13.5576 13.4955 6.81863 6.82794 6.83728 6.84664 6.85603 6.86544 6.87488 6.88435 6.89384 6.90336 6.9129 6.92247 6.93207 6.94169 6.95134 6.96102 6.97072 6.98045 6.99021 7 7.00981 7.01965 7.02952 7.03942 7.04934 7.0593 7.06928 7.07928 2.23344 2.22884 2.22425 2.21969 2.21514 2.21061 2.20331 2.19504 2.18759 2.18738 2.18716 2.18695 2.18673 2.18652 2.1863 2.18609 2.18587 2.18482 2.1835 2.18218 2.18086 2.17955 2.17824 2.18057 2.18415 2.18775 2.19135 2.19497 2.19861 2.20135 2.20338 2.20541 2.20745 2.20949 2.23648 2.25921 7.47064 7.48181 7.49303 7.50427 7.51555 7.52686 7.53821 7.54959 7.56101 7.57246 7.58395 7.59547 7.60702 7.61861 7.63024 7.6419 7.6536 7.66533 7.6771 7.68891 7.70075 7.71263 7.72454 7.73649 7.74848 7.76051 7.77257 7.78467 7.79681 7.80899 7.8212 7.83346 7.84575 7.85808 13.5824 13.5915 13.6006 13.6097 13.6188 13.6279 13.637 13.6462 13.6553 13.6645 13.6737 13.6829 13.6921 13.7013 13.7106 13.7198 13.7291 13.7384 13.7476 13.7569 13.7663 13.7756 13.7849 13.7943 13.8036 13.813 13.8224 13.8318 13.8412 13.8506 13.8601 13.8695 13.879 13.8885 13.898 13.9075 13.917 14.14 14.0764 14.0133 13.9509 15.1905 15.1726 15.1546 15.1367 15.1188 15.101 15.0832 15.0655 15.0478 15.0301 15.0125 14.9949 14.9774 14.9599 14.9425 14.9251 14.9077 12.3558 11.5697 11.5426 11.4545 11.4523 11.4501 11.4479 11.4458 11.4436 11.4414 11.4393 11.4317 11.4225 11.4132 11.404 11.244 11.2738 11.3038 11.3339 11.3641 11.3945 11.4251 11.4559 11.4868 11.5179 11.5491 11.5806 11.6122 11.6439 11.6759 11.708 11.7403 11.7728 11.8054 11.8382 11.8713 11.9045 11.9379 11.9714 12.0052 12.0392 12.0733 12.1077 20 20 20 12.3868 12.3528 12.319 12.2853 12.2519 12.29 12.333 12.7982 12.7796 12.761 12.7425 11.7946 11.7969 11.7992 11.8015
5.59945 5.5983 5.59716 5.59601 5.59487 5.59373 5.41926 5.41829 5.41732 5.41636 5.41539 5.41442 5.41346 5.41249 5.41153 5.41056 5.4096 5.40864 5.40767 5.40671 5.40575 5.40479 5.40382 5.40286 5.4019 5.40094 5.39998 5.39902 5.39806 5.3971 5.39614 5.39381 5.39114 5.38847 5.39075 5.40258 5.41447 5.42641 5.43841 5.45046 5.46256 5.47471 5.48692 5.49919 5.51151 5.52388 5.53631 5.5488 5.56134 5.57394 5.5858 5.59573 5.6057 5.61571 5.62575 5.63583 5.64595 5.6561 5.66629 5.67651 5.68677 5.69707 5.70741 5.71778 5.72819 5.73864 5.85597 5.8627 5.86945 5.87621 5.88298 5.88977 5.89658 5.9034 5.91024 5.9171 5.92396 5.93085 5.93775 5.94467 5.95161 5.95856 5.96552 5.97251 6.00295 6.13056 6.2444 18.6398 18.6496 18.6595 18.6693 18.6792 18.689 18.6989 18.7088 18.7187 13.1705 13.1942 13.218 13.242 13.2659 13.29 6.18954 18.7982 18.8082 18.8704 18.8632 18.856 18.8489 13.3775 11.9308 12.0019 12.0739 12.1467 12.2205 12.2951 12.3706 12.4471 12.5246 12.603 12.6823 12.7627 12.8442 12.7513 12.8099 12.8691 12.9288 12.9891 13.05 13.1114 13.1734 13.236 13.2992 13.363 13.4274 13.4924 20 20 15.081 15.14 15.1994 15.2594 12.9066 13.0531 13.2029 7.99588 13.5132 13.6738 13.8384 14.0069 14.1796 20 20 20 20 20 20 20 20 20 20 20 20 20 20 20 20 20 20 12.8005 12.8304 12.8604 12.8906 12.9209 12.9561 13.065 13.1757 13.2883 13.4029 13.5194 13.638 13.6189 13.5563 13.4943 13.4328 6.81298 6.82227 6.83159 6.84094 6.85031 6.85971 6.86913 6.87858 6.88806 6.89756 6.90709 6.91664 6.92622 6.93583 6.94547 6.95513 6.96481 6.97453 6.98427 6.99404 7.00384 7.01366 7.02351 7.03339 7.0433 7.05324 7.0632 2.23346 2.22886 2.22427 2.2197 2.21516 2.21063 2.2031 2.19483 2.1876 2.18739 2.18717 2.18696 2.18674 2.18653 2.18631 2.1861 2.18588 2.18472 2.1834 2.18208 2.18077 2.17945 2.17814 2.18058 2.18416 2.18776 2.19137 2.19499 2.19862 2.20124 2.20327 2.20531 2.20734 2.20939 2.23707 2.25887 7.45272 7.46385 7.47501 7.4862 7.49743 7.50868 7.51998 7.5313 7.54266 7.55406 7.56549 7.57695 7.58845 7.59999 7.61156 7.62316 7.6348 7.64647 7.65819 7.66993 7.68172 7.69354 7.70539 7.71729 7.72921 7.74118 7.75318 7.76523 7.7773 7.78942 7.80157 7.81377 7.82599 7.83826 7.85057 7.86292 13.5854 13.5944 13.6035 13.6126 13.6218 13.6309 13.64 13.6492 13.6583 13.6675 13.6767 13.6859 13.6951 13.7044 13.7136 13.7229 13.7321 13.7414 13.7507 13.76 13.7693 13.7786 13.788 13.7973 13.8067 13.8161 13.8255 13.8349 13.8443 13.8537 13.8632 13.8726 13.8821 13.8916 13.9011 13.9106 14.0244 13.9619 15.1542 15.1363 15.1185 15.1007 15.0829 15.0651 15.0474 15.0298 15.0122 14.9946 14.9771 14.9596 14.9421 14.9247 14.9073 14.89 14.8727 14.8555 14.8382 12.4124 12.6484 11.5738 11.5466 11.4563 11.4541 11.4519 11.4497 11.4476 11.4454 11.4432 11.4372 11.4279 11.4186 11.4094 11.2393 11.2691 11.299 11.3291 11.3593 11.3897 11.4203 11.4508 11.4819 11.513 11.5442 11.5756 11.6071 11.6389 11.6708 11.7029 11.7352 11.7676 11.8002 11.833 11.866 11.8992 11.9326 11.9661 11.9999 12.0338 12.0679 12.1022 20 20 20 12.3616 12.3277 12.2941 12.2606 12.2521 12.2949 12.7853 12.7667 12.7482 11.7777 11.78 11.7823 11.7846 11.7868
5.60151 5.60037 5.59922 5.59808 5.59693 5.59579 5.42077 5.4198 5.41883 5.41787 5.4169 5.41593 5.41497 5.414 5.41304 5.41207 5.41111 5.41014 5.40918 5.40822 5.40725 5.40629 5.40533 5.40437 5.4034 5.40244 5.40148 5.40052 5.39956 5.3986 5.39733 5.39466 5.39199 5.38932 5.39317 5.40502 5.41692 5.42887 5.44088 5.45294 5.46505 5.47722 5.48944 5.50171 5.51404 5.52643 5.53887 5.55137 5.56392 5.57654 5.58753 5.59747 5.60745 5.61746 5.62751 5.63759 5.64772 5.65787 5.66807 5.6783 5.68857 5.69887 5.70922 5.7196 5.73001 5.74047 5.75097 5.7615 5.77207 5.86988 5.87665 5.88342 5.89021 5.89702 5.90384 5.91068 5.91754 5.92441 5.9313 5.9382 5.94512 5.95206 5.95901 5.96597 6.05453 6.17111 13.8526 13.957 14.0629 14.1705 14.2797 18.6485 18.6583 18.6682 18.678 18.6879 18.6978 13.1838 13.2076 13.2315 13.2555 18.7473 18.7572 18.7672 18.8456 18.8384 18.8313 18.8241 18.817 18.8099 13.3511 12.0002 12.0721 12.1449 12.2186 12.2932 12.3688 12.4452 12.5226 12.601 12.6804 12.7607 12.8421 12.9246 12.7945 12.8536 12.9132 12.9733 13.034 13.0953 13.1571 13.2196 13.2826 13.3462 13.4105 13.4754 14.463 20 20 15.0954 15.1545 15.2141 12.8819 13.0278 7.7586 13.3298 13.4861 13.6461 13.8099 13.9778 14.1498 20 20 20 20 20 20 20 20 20 20 20 20 20 20 20 20 20 20 20 12.8125 12.8424 12.8725 12.9027 12.933 12.9635 12.9942 13.0989 13.2102 13.3234 13.4385 13.5557 13.555 13.493 13.4316 13.3707 6.80733 6.81661 6.82592 6.83525 6.84461 6.85399 6.8634 6.87283 6.88229 6.89178 6.90129 6.91083 6.92039 6.92998 6.9396 6.94924 6.95892 6.96861 6.97834 6.98809 6.99787 7.00768 7.01752 7.02738 7.03727 7.04719 2.23348 2.22887 2.22429 2.21972 2.21517 2.21064 2.20289 2.19462 2.18761 2.1874 2.18718 2.18697 2.18675 2.18654 2.18632 2.18611 2.18589 2.18463 2.18331 2.18199 2.18067 2.17936 2.17804 2.1806 2.18418 2.18778 2.19138 2.195 2.19863 2.20114 2.20317 2.2052 2.20724 2.20928 2.23765 2.25852 7.4349 7.44597 7.45708 7.46821 7.47939 7.49059 7.50183 7.5131 7.52441 7.53575 7.54712 7.55853 7.56997 7.58145 7.59296 7.60451 7.61609 7.62771 7.63937 7.65106 7.66278 7.67454 7.68634 7.69817 7.71004 7.72195 7.73389 7.74588 7.75789 7.76995 7.78204 7.79417 7.80634 7.81855 7.83079 7.84308 7.8554 7.86776 13.5883 13.5974 13.6065 13.6156 13.6247 13.6339 13.643 13.6522 13.6613 13.6705 13.6797 13.6889 13.6981 13.7074 13.7166 13.7259 13.7351 13.7444 13.7537 13.763 13.7723 13.7817 13.791 13.8004 13.8098 13.8191 13.8285 13.8379 13.8474 13.8568 13.8662 13.8757 13.8852 13.8947 13.9042 15.1181 15.1003 15.0825 15.0648 15.0471 15.0294 15.0118 14.9942 14.9767 14.9592 14.9418 14.9244 14.907 14.8897 14.8724 14.8551 14.8379 14.8207 14.8036 14.7865 14.7695 12.4696 12.7078 12.9553 11.5779 11.4602 11.4581 11.4559 11.4537 11.4515 11.4494 11.4472 11.4426 11.4333 11.4241 11.4148 11.2347 11.2644 11.2943 11.3243 11.3545 11.3849 11.4154 11.4426 11.4496 11.508 11.5392 11.5706 11.6021 11.6339 11.6657 11.6978 11.73 11.7625 11.7951 11.8278 11.8608 11.8939 11.9273 11.9608 11.9945 12.0284 12.0625 12.0968 20 20 12.3705 12.3365 12.3028 12.2693 12.2359 12.257 12.2999 12.7539 11.7609 11.7631 11.7654 11.7677 11.7699 11.7722
5.60358 5.60244 5.60129 5.60014 5.599 5.59786 5.42228 5.42131 5.42035 5.41938 5.41841 5.41745 5.41648 5.41551 5.41455 5.41358 5.41262 5.41165 5.41069 5.40972 5.40876 5.4078 5.40683 5.40587 5.40491 5.40395 5.40298 5.40202 5.40106 5.4001 5.39819 5.39552 5.39284 5.39018 5.3956 5.40746 5.41937 5.43133 5.44335 5.45542 5.46754 5.47972 5.49195 5.50424 5.51658 5.52898 5.54143 5.55394 5.56651 5.57913 5.58926 5.59921 5.60919 5.61921 5.62927 5.63936 5.64949 5.65965 5.66985 5.68009 5.69036 5.70068 5.71102 5.72141 5.73184 5.7423 5.7528 5.76334 5.77392 5.78454 5.79519 5.87708 5.88386 5.89065 5.89746 5.90429 5.91113 5.91798 5.92486 5.93174 5.93865 5.94557 5.9525 5.98036 6.09952 6.21213 13.4914 13.5904 13.6908 13.7927 13.8962 14.0012 14.1078 14.2161 14.326 18.6572 18.667 18.6769 13.1972 13.2211 13.245 18.7164 18.7263 18.7362 18.8137 18.8066 18.7995 18.7923 18.7852 18.7781 18.771 11.9984 12.0703 12.1431 12.2168 12.2914 12.3669 12.4433 12.5207 12.599 12.6784 12.7587 12.8401 12.9225 12.7792 12.8381 12.8975 12.9575 13.0181 13.0792 13.1409 13.2032 13.2661 13.3295 13.3936 13.4583 13.5237 14.0295 14.2316 14.8045 15.1099 15.1691 12.8572 7.535 13.1513 13.3034 13.4591 13.6185 13.7816 13.9488 14.12 20 20 20 20 20 20 20 20 20 20 20 20 20 20 20 20 20 20 20 20 12.8245 12.8544 12.8846 12.9148 12.9453 12.9758 13.0065 13.0374 13.1329 13.2448 13.3586 13.4743 13.4918 13.4303 13.3694 13.3091 6.8017 6.81096 6.82025 6.82957 6.83891 6.84828 6.85767 6.86709 6.87653 6.886 6.8955 6.90502 6.91457 6.92414 6.93374 6.94337 6.95303 6.96271 6.97242 6.98216 6.99192 7.00171 7.01153 7.02137 7.03125 2.23349 2.22889 2.2243 2.21974 2.21519 2.21066 2.20267 2.1944 2.18762 2.18741 2.18719 2.18698 2.18676 2.18655 2.18633 2.18612 2.18585 2.18453 2.18321 2.18189 2.18058 2.17926 2.17795 2.18061 2.18419 2.18779 2.1914 2.19502 2.19865 2.20103 2.20306 2.2051 2.20713 2.20918 2.23823 2.25817 7.41716 7.42818 7.43923 7.45031 7.46143 7.47258 7.48377 7.49499 7.50624 7.51752 7.52884 7.54019 7.55158 7.56301 7.57446 7.58595 7.59748 7.60904 7.62064 7.63227 7.64394 7.65564 7.66738 7.67916 7.69097 7.70282 7.7147 7.72662 7.73858 7.75058 7.76261 7.77468 7.78679 7.79893 7.81112 7.82334 7.8356 7.8479 7.86023 7.87261 13.5913 13.6004 13.6095 13.6186 13.6277 13.6369 13.646 13.6552 13.6643 13.6735 13.6827 13.6919 13.7012 13.7104 13.7196 13.7289 13.7382 13.7475 13.7568 13.7661 13.7754 13.7847 13.7941 13.8034 13.8128 13.8222 13.8316 13.841 13.8504 13.8599 13.8693 13.8788 13.8883 13.8978 15.0467 15.0291 15.0115 14.9939 14.9764 14.9589 14.9414 14.924 14.9066 14.8893 14.872 14.8548 14.8376 14.8204 14.8033 14.7862 14.7691 14.7521 14.7351 14.7182 12.2957 12.5273 12.7677 13.0176 13.2774 11.582 11.462 11.4599 11.4577 11.4555 11.4533 11.4512 11.4481 11.4388 11.4295 11.4202 11.23 11.2597 11.2895 11.3196 11.3497 11.3801 11.4106 11.4344 11.4414 11.4484 11.5343 11.5656 11.5971 11.6288 11.6607 11.6927 11.7249 11.7573 11.7899 11.8226 11.8556 11.8887 11.922 11.9555 11.9892 12.023 12.0571 12.0914 20 20 12.3454 12.3116 12.278 12.2446 12.2194 12.2619 11.7441 11.7463 11.7486 11.7508 11.7531 11.7554 11.7576
5.60565 5.60451 5.60336 5.60221 5.60107 5.59992 5.4238 5.42283 5.42186 5.42089 5.41992 5.41896 5.41799 5.41702 5.41606 5.41509 5.41413 5.41316 5.4122 5.41123 5.41027 5.4093 5.40834 5.40738 5.40641 5.40545 5.40449 5.40353 5.40256 5.4016 5.39905 5.39637 5.3937 5.39103 5.39803 5.4099 5.42182 5.4338 5.44582 5.4579 5.47004 5.48223 5.49447 5.50677 5.51912 5.53153 5.544 5.55652 5.5691 5.58107 5.59099 5.60095 5.61094 5.62096 5.63102 5.64112 5.65126 5.66143 5.67163 5.68188 5.69216 5.70248 5.71283 5.72323 5.73366 5.74413 5.75464 5.76518 5.77577 5.78639 5.79706 5.80776 5.8185 5.82928 5.89109 5.8979 5.90473 5.91157 5.91843 5.9253 5.93219 5.9391 5.94602 6.02957 6.13959 6.2537 18.5387 13.2425 13.3379 13.4346 13.5327 13.6323 13.7334 13.8359 13.94 14.0457 14.153 14.262 18.656 13.2106 18.6757 18.6856 18.6955 18.7054 18.7819 18.7748 18.7678 18.7607 18.7536 18.7465 18.7394 18.7324 12.0685 12.1413 12.215 12.2895 12.365 12.4414 12.5188 12.5971 12.6764 12.7567 12.8381 12.9205 13.0039 12.8226 12.8819 12.9418 13.0022 13.0631 13.1247 13.1868 13.2496 13.3129 13.3768 13.4414 13.5065 14.0024 14.0258 14.0492 14.0727 14.5621 7.32392 12.9775 13.1256 13.2771 13.4322 13.5909 13.7534 13.9199 14.0904 20 20 20 20 20 20 20 20 20 20 20 20 20 20 20 20 20 20 20 20 20 12.8364 12.8665 12.8967 12.927 12.9575 12.9881 13.0189 13.0498 13.0808 13.1671 13.2796 13.394 13.4291 13.3682 13.3078 6.78685 6.79607 6.80532 6.8146 6.8239 6.83322 6.84257 6.85195 6.86135 6.87078 6.88023 6.88971 6.89922 6.90875 6.91831 6.9279 6.93751 6.94715 6.95681 6.96651 6.97623 6.98597 6.99575 7.00555 7.01538 2.23351 2.22891 2.22432 2.21975 2.2152 2.21068 2.20246 2.19419 2.18763 2.18742 2.1872 2.18699 2.18677 2.18656 2.18634 2.18613 2.18575 2.18443 2.18311 2.1818 2.18048 2.17916 2.17785 2.18062 2.18421 2.1878 2.19141 2.19503 2.19866 2.20093 2.20296 2.20499 2.20703 2.20907 2.23881 2.25783 7.3995 7.41047 7.42147 7.4325 7.44357 7.45466 7.46579 7.47696 7.48816 7.49939 7.51065 7.52195 7.53328 7.54465 7.55605 7.56749 7.57896 7.59046 7.602 7.61358 7.62519 7.63683 7.64852 7.66023 7.67199 7.68378 7.6956 7.70747 7.71936 7.7313 7.74327 7.75528 7.76733 7.77941 7.79154 7.8037 7.81589 7.82813 7.84041 7.85272 7.86507 7.87746 13.5943 13.6033 13.6125 13.6216 13.6307 13.6398 13.649 13.6582 13.6673 13.6765 13.6857 13.6949 13.7042 13.7134 13.7227 13.7319 13.7412 13.7505 13.7598 13.7691 13.7784 13.7878 13.7971 13.8065 13.8159 13.8253 13.8347 13.8441 13.8535 13.863 13.8724 13.8819 13.8914 14.976 14.9585 14.9411 14.9237 14.9063 14.889 14.8717 14.8544 14.8372 14.82 14.8029 14.7858 14.7688 14.7518 14.7348 14.7179 14.701 14.6841 14.6673 14.6505 12.3518 12.5855 12.8282 13.0805 13.3429 20 11.5861 11.4638 11.4617 11.4595 11.4573 11.4551 11.453 11.4442 11.4349 11.4256 11.2253 11.255 11.2848 11.3148 11.345 11.3753 11.4058 11.4262 11.4332 11.4402 11.5294 11.5607 11.5922 11.6238 11.6556 11.6876 11.7198 11.7522 11.7847 11.8175 11.8504 11.8835 11.9167 11.9502 11.9838 12.0177 12.0517 12.0859 20 20 12.3204 12.2867 12.2533 12.22 11.7273 11.7296 11.7318 11.7341 11.7363 11.7386 11.7408 11.7431
5.60773 5.60658 5.60543 5.60428 5.60314 5.60199 5.42531 5.42434 5.42337 5.42241 5.42144 5.42047 5.4195 5.41853 5.41757 5.4166 5.41564 5.41467 5.4137 5.41274 5.41177 5.41081 5.40985 5.40888 5.40792 5.40696 5.40599 5.40503 5.40407 5.40258 5.3999 5.39723 5.39455 5.39188 5.40046 5.41234 5.42427 5.43626 5.4483 5.46039 5.47254 5.48474 5.49699 5.5093 5.52167 5.53409 5.54656 5.5591 5.57168 5.5828 5.59273 5.60269 5.61268 5.62271 5.63278 5.64289 5.65303 5.6632 5.67342 5.68367 5.69396 5.70428 5.71464 5.72504 5.73548 5.74596 5.75647 5.76703 5.77762 5.78825 5.79892 5.80963 5.82038 5.83117 5.842 5.85287 5.86378 5.90517 5.91201 5.91887 5.92575 5.93264 5.95794 6.06873 6.18019 18.4989 18.5085 18.5182 18.5279 18.5376 13.1878 13.2823 13.3783 13.4756 13.5743 13.6745 13.7762 13.8794 13.9842 14.0905 14.1985 14.3082 18.6647 18.7574 18.7503 18.7432 18.7362 18.7291 18.722 18.715 18.7079 18.7009 12.0667 12.1395 12.2131 12.2877 12.3631 12.4395 12.5168 12.5951 12.6744 12.7547 12.836 12.9184 13.0018 12.8072 12.8663 12.9261 12.9863 13.0471 13.1085 13.1705 13.2331 13.2963 13.36 13.4244 13.4894 13.5551 13.9987 14.0221 8.08428 7.12435 14.0925 12.9525 13.1 13.251 13.4054 13.5635 13.7254 13.8912 14.061 20 20 20 20 20 20 20 20 20 20 20 20 20 12.1492 20 20 20 20 20 20 20 12.8185 12.8485 12.8786 12.9088 12.9392 12.9697 13.0004 13.0312 13.0622 13.0933 13.1246 13.2015 13.3146 13.3669 13.3066 13.2468 6.78125 6.79045 6.79969 6.80895 6.81823 6.82754 6.83688 6.84624 6.85563 6.86504 6.87448 6.88394 6.89343 6.90295 6.91249 6.92206 6.93166 6.94128 6.95093 6.96061 6.97031 6.98004 6.9898 6.99958 2.23353 2.22892 2.22434 2.21977 2.21522 2.21057 2.20224 2.19398 2.18764 2.18743 2.18721 2.187 2.18678 2.18657 2.18635 2.18614 2.18566 2.18434 2.18302 2.1817 2.18038 2.17907 2.17776 2.18064 2.18422 2.18782 2.19143 2.19505 2.19868 2.20082 2.20285 2.20489 2.20692 2.20896 2.2394 2.25748 7.38193 7.39285 7.40379 7.41477 7.42578 7.43683 7.44791 7.45902 7.47016 7.48134 7.49255 7.50379 7.51507 7.52638 7.53773 7.54911 7.56052 7.57197 7.58346 7.59497 7.60653 7.61812 7.62974 7.6414 7.6531 7.66483 7.6766 7.6884 7.70024 7.71212 7.72403 7.73598 7.74797 7.75999 7.77206 7.78415 7.79629 7.80847 7.82068 7.83293 7.84522 7.85755 7.86992 7.88233 13.5972 13.6063 13.6154 13.6245 13.6337 13.6428 13.652 13.6612 13.6703 13.6795 13.6887 13.698 13.7072 13.7164 13.7257 13.735 13.7442 13.7535 13.7628 13.7722 13.7815 13.7908 13.8002 13.8096 13.8189 13.8283 13.8378 13.8472 13.8566 13.8661 13.8755 13.885 14.9059 14.8886 14.8713 14.8541 14.8369 14.8197 14.8026 14.7855 14.7684 14.7514 14.7344 14.7175 14.7006 14.6838 14.667 14.6502 14.6334 14.6167 20 20 12.4084 12.6443 12.8893 13.144 20 20 20 11.4678 11.4656 11.4635 11.4613 11.4591 11.4569 11.4496 11.4404 11.4311 11.2206 11.2503 11.2801 11.3101 11.3402 11.3705 11.4009 11.418 11.425 11.432 11.439 11.5557 11.5872 11.6188 11.6506 11.6826 11.7147 11.7471 11.7796 11.8123 11.8451 11.8782 11.9115 11.9449 11.9785 12.0123 12.0463 12.0805 20 12.3292 12.2955 11.7083 11.7106 11.7128 11.7151 11.7173 11.7196 11.7218 11.7241 11.7263 11.7286
5.6098 5.60865 5.6075 5.60635 5.60521 5.60406 5.42683 5.42586 5.42489 5.42392 5.42295 5.42198 5.42102 5.42005 5.41908 5.41811 5.41715 5.41618 5.41521 5.41425 5.41328 5.41232 5.41135 5.41039 5.40943 5.40846 5.4075 5.40654 5.40557 5.40344 5.40076 5.39808 5.39541 5.39274 5.4029 5.41479 5.42673 5.43873 5.45078 5.46288 5.47504 5.48725 5.49951 5.51183 5.52421 5.53664 5.54913 5.56168 5.57428 5.58453 5.59446 5.60443 5.61443 5.62447 5.63454 5.64465 5.6548 5.66498 5.6752 5.68546 5.69576 5.70609 5.71646 5.72686 5.73731 5.74779 5.75831 5.76887 5.77947 5.79011 5.80079 5.8115 5.82226 5.83305 5.84389 5.85477 5.86568 5.87664 5.88764 5.89868 5.91932 5.92619 5.99948 6.10839 6.22133 18.4688 18.4784 18.4881 18.4977 18.5074 18.5171 18.5268 18.5365 13.1335 13.2273 13.3224 13.4189 13.5168 13.6161 13.717 13.8193 13.9232 14.0286 14.1357 14.2444 18.7117 18.7047 18.6976 18.6906 18.6836 18.6765 18.6695 12.0649 12.1377 12.2113 12.2858 12.3612 12.4376 12.5149 12.5932 12.6725 12.7527 12.834 12.9163 12.9997 13.0842 12.8508 12.9104 12.9705 13.0312 13.0924 13.1543 13.2167 13.2797 13.3433 13.4075 13.4724 13.5378 13.9718 7.84181 14.0184 14.0418 14.0652 14.0888 13.0746 13.2249 13.3787 13.5362 13.6974 13.8625 14.0316 20 20 20 20 20 20 20 20 20 20 20 20 20 20 20 20 20 20 20 20 20 20 12.8305 12.8605 12.8907 12.921 12.9514 12.982 13.0127 13.0436 13.0746 13.1058 13.1371 13.1686 13.2361 13.3054 13.2456 13.1864 6.77565 6.78485 6.79407 6.80331 6.81258 6.82188 6.8312 6.84054 6.84991 6.85931 6.86873 6.87818 6.88765 6.89716 6.90668 6.91624 6.92582 6.93542 6.94506 6.95472 6.9644 6.97412 6.98386 2.23354 2.22894 2.22435 2.21979 2.21524 2.21035 2.20203 2.19376 2.18766 2.18744 2.18722 2.18701 2.18679 2.18658 2.18636 2.18615 2.18556 2.18424 2.18292 2.1816 2.18029 2.17897 2.17766 2.18065 2.18424 2.18783 2.19144 2.19506 2.19869 2.20072 2.20275 2.20478 2.20682 2.20886 2.23998 2.25714 7.36444 7.37531 7.3862 7.39713 7.40809 7.41908 7.4301 7.44116 7.45225 7.46338 7.47453 7.48572 7.49695 7.5082 7.5195 7.53082 7.54218 7.55357 7.565 7.57646 7.58796 7.59949 7.61106 7.62266 7.6343 7.64598 7.65769 7.66943 7.68121 7.69303 7.70489 7.71678 7.72871 7.74067 7.75267 7.76471 7.77679 7.7889 7.80105 7.81324 7.82547 7.83774 7.85004 7.86239 7.87477 7.88719 13.6002 13.6093 13.6184 13.6275 13.6367 13.6458 13.655 13.6642 13.6733 13.6825 13.6917 13.701 13.7102 13.7195 13.7287 13.738 13.7473 13.7566 13.7659 13.7752 13.7845 13.7939 13.8033 13.8126 13.822 13.8314 13.8408 13.8503 13.8597 13.8691 13.8786 14.8365 14.8194 14.8022 14.7851 14.7681 14.7511 14.7341 14.7172 14.7003 14.6834 14.6666 14.6498 14.6331 14.6164 14.5997 14.5831 20 20 20 12.2362 12.4655 12.7036 12.9509 13.2081 20 20 20 20 11.4696 11.4674 11.4653 11.4631 11.4609 11.4551 11.4458 11.4365 11.2159 11.2456 11.2754 11.3053 11.3354 11.3657 11.3961 11.4098 11.4168 11.4238 11.4308 11.4378 11.5822 11.6138 11.6456 11.6775 11.7096 11.7419 11.7744 11.8071 11.8399 11.873 11.9062 11.9396 11.9732 12.007 12.0409 12.0751 20 11.6917 11.6939 11.6962 11.6984 11.7007 11.7029 11.7051 11.7074 11.7096 11.7119 11.7141
5.61188 5.61073 5.60958 5.60843 5.60728 5.60613 5.42835 5.42738 5.42641 5.42544 5.42447 5.4235 5.42253 5.42156 5.42059 5.41963 5.41866 5.41769 5.41672 5.41576 5.41479 5.41383 5.41286 5.4119 5.41093 5.40997 5.409 5.40804 5.40698 5.4043 5.40161 5.39894 5.39626 5.39359 5.40533 5.41723 5.42919 5.4412 5.45326 5.46537 5.47754 5.48976 5.50204 5.51437 5.52676 5.5392 5.5517 5.56426 5.57636 5.58626 5.5962 5.60617 5.61618 5.62622 5.6363 5.64642 5.65657 5.66676 5.67699 5.68725 5.69755 5.70789 5.71827 5.72868 5.73913 5.74962 5.76015 5.77072 5.78132 5.79197 5.80265 5.81338 5.82414 5.83494 5.84578 5.85667 5.86759 5.87856 5.88956 5.90061 5.9117 5.9314 6.03824 6.14858 18.4292 18.4388 18.4484 18.458 18.4677 18.4773 18.487 18.4966 18.5063 18.516 18.5257 18.5354 18.5451 13.1727 13.2671 13.3628 13.4599 13.5584 13.6584 13.7598 13.8628 13.9673 14.0734 14.1812 18.6593 18.6523 18.6453 18.6383 18.6313 12.1359 12.2095 12.2839 12.3594 12.4357 12.513 12.5912 12.6705 12.7507 12.832 12.9143 12.9977 13.0821 12.8353 12.8948 12.9547 13.0153 13.0764 13.138 13.2003 13.2631 13.3266 13.3907 13.4553 13.5207 7.61345 13.9682 13.9914 14.0147 14.0381 14.0615 13.0492 13.1989 13.3522 13.509 13.6696 13.834 14.0024 14.175 20 20 20 20 20 20 20 20 20 20 20 20 20 12.2785 20 20 20 20 20 20 20 20 12.8425 12.8726 12.9028 12.9331 12.9636 12.9943 13.0251 13.056 13.0871 13.1183 13.1497 13.1812 13.2129 13.2444 13.1852 13.5013 6.77007 6.77925 6.78845 6.79768 6.80694 6.81622 6.82552 6.83485 6.84421 6.85359 6.86299 6.87243 6.88189 6.89137 6.90088 6.91042 6.91998 6.92957 6.93919 6.94883 6.9585 6.9682 2.23356 2.22896 2.22437 2.2198 2.21525 2.21014 2.20181 2.19355 2.18767 2.18745 2.18724 2.18702 2.1868 2.18659 2.18637 2.18616 2.18546 2.18414 2.18282 2.18151 2.18019 2.17888 2.17756 2.18067 2.18425 2.18785 2.19146 2.19508 2.19859 2.20061 2.20264 2.20467 2.20671 2.20875 2.24056 2.25679 7.34704 7.35785 7.36869 7.37957 7.39048 7.40141 7.41239 7.42339 7.43443 7.4455 7.4566 7.46774 7.47891 7.49011 7.50135 7.51262 7.52392 7.53526 7.54664 7.55804 7.56949 7.58096 7.59247 7.60402 7.6156 7.62722 7.63887 7.65056 7.66228 7.67404 7.68584 7.69767 7.70954 7.72144 7.73339 7.74537 7.75738 7.76943 7.78153 7.79365 7.80582 7.81803 7.83027 7.84255 7.85487 7.86723 7.87963 7.89207 13.6032 13.6123 13.6214 13.6305 13.6397 13.6488 13.658 13.6672 13.6763 13.6855 13.6948 13.704 13.7132 13.7225 13.7317 13.741 13.7503 13.7596 13.7689 13.7783 13.7876 13.7969 13.8063 13.8157 13.8251 13.8345 13.8439 13.8533 13.8628 13.8722 14.7677 14.7507 14.7338 14.7168 14.6999 14.6831 14.6663 14.6495 14.6328 14.6161 14.5994 14.5828 14.5662 20 20 20 20 20 20 12.2917 12.5232 12.7635 13.0132 13.2728 20 20 20 11.902 11.8785 11.4714 11.4692 11.4671 11.4649 11.4605 11.4512 11.4419 11.2113 11.2409 11.2706 11.3006 11.3306 11.3609 11.3913 11.4017 11.4087 11.4156 11.4226 11.4296 11.4366 11.6088 11.6405 11.6724 11.7045 11.7368 11.7693 11.8019 11.8347 11.8677 11.9009 11.9343 11.9679 12.0016 12.0356 11.6751 11.6773 11.6795 11.6818 11.684 11.6863 11.6885 11.6907 11.693 11.6952 11.6974 11.6997
5.61395 5.6128 5.61165 5.6105 5.60935 5.6082 5.42986 5.42889 5.42792 5.42695 5.42598 5.42501 5.42404 5.42308 5.42211 5.42114 5.42017 5.4192 5.41824 5.41727 5.4163 5.41534 5.41437 5.41341 5.41244 5.41148 5.41051 5.40955 5.40784 5.40515 5.40247 5.39979 5.39712 5.39591 5.40777 5.41968 5.43165 5.44367 5.45574 5.46786 5.48004 5.49228 5.50457 5.51691 5.52931 5.54176 5.55427 5.56684 5.57808 5.58799 5.59793 5.60791 5.61793 5.62798 5.63807 5.64819 5.65835 5.66855 5.67878 5.68905 5.69936 5.7097 5.72008 5.7305 5.74096 5.75146 5.76199 5.77257 5.78318 5.79383 5.80452 5.81525 5.82602 5.83683 5.84768 5.85857 5.8695 5.88047 5.89149 5.90254 5.91349 5.96935 6.07751 6.1893 18.3993 18.4089 18.4185 18.4281 18.4377 18.4473 18.4569 18.4665 18.4762 18.4858 18.4955 18.5052 18.5149 18.5245 18.5343 18.544 18.5537 18.5634 13.3071 13.4034 13.5011 13.6002 13.7008 13.8029 13.9065 14.0117 14.1185 18.6071 18.6001 12.134 12.2076 12.2821 12.3575 12.4338 12.5111 12.5893 12.6685 12.7487 12.83 12.9122 12.9956 13.08 13.1655 12.8792 12.939 12.9994 13.0603 13.1218 13.1839 13.2466 13.3099 13.3738 13.4384 7.39802 13.5693 13.9414 13.9645 13.9877 14.011 14.0344 13.0239 13.1731 13.3257 13.4819 13.6418 13.8056 13.9733 14.1452 15.3819 20 20 20 20 20 20 20 20 20 20 20 20 20 20 20 20 20 20 20 20 20 20 12.8545 12.8847 12.9149 12.9454 12.9759 13.0066 13.0375 10.096 13.0996 13.1309 13.1623 13.1939 13.2257 13.184 13.3058 13.4206 6.7645 6.77366 6.78285 6.79206 6.8013 6.81057 6.81986 6.82917 6.83851 6.84788 6.85727 6.86668 6.87613 6.8856 6.89509 6.90461 6.91416 6.92373 6.93334 6.94296 6.95262 2.23358 2.22897 2.22439 2.21982 2.21527 2.20992 2.2016 2.19334 2.18768 2.18746 2.18725 2.18703 2.18682 2.1866 2.18639 2.18617 2.18537 2.18405 2.18273 2.18141 2.18009 2.17878 2.17747 2.18068 2.18427 2.18786 2.19147 2.19509 2.19848 2.20051 2.20254 2.20457 2.20661 2.20865 2.24115 2.25645 7.32971 7.34047 7.35127 7.36209 7.37295 7.38383 7.39475 7.40571 7.41669 7.42771 7.43876 7.44984 7.46096 7.47211 7.48329 7.49451 7.50576 7.51704 7.52836 7.53971 7.5511 7.56252 7.57397 7.58546 7.59699 7.60855 7.62014 7.63177 7.64344 7.65514 7.66688 7.67866 7.69046 7.70231 7.71419 7.72611 7.73807 7.75006 7.7621 7.77416 7.78627 7.79841 7.8106 7.82281 13.5517 13.5608 13.5698 13.5789 13.588 13.597 13.6061 13.6152 13.6244 13.6335 13.6426 13.6518 13.661 13.6701 13.6793 13.6886 13.6978 13.707 13.7162 13.7255 13.7348 13.7441 13.7533 13.7627 13.772 13.7813 13.7906 13.8 13.8094 13.8188 13.8282 13.8376 13.847 13.8564 13.8659 13.8753 14.6828 14.6659 14.6492 14.6324 14.6157 14.5991 14.5824 14.5659 14.5493 14.5328 20 20 20 20 20 20 20 20 12.3478 12.5813 12.0043 11.9804 11.9567 11.933 11.9095 11.886 11.8626 11.8393 11.8161 11.4732 11.471 11.4689 11.466 11.4567 11.4474 11.2066 11.2362 11.2659 11.2958 11.3259 11.3561 11.3827 11.3935 11.4005 11.4075 11.4145 11.4215 11.4289 11.6038 11.6355 11.6674 11.6995 11.7317 11.7641 11.7967 11.8295 11.8625 11.8957 11.929 11.9626 11.6585 11.6607 11.663 11.6652 11.6674 11.6697 11.6719 11.6741 11.6763 11.6786 11.6808 11.6831 11.6853
5.61603 5.61488 5.61373 5.61258 5.61143 5.61028 5.43138 5.43041 5.42944 5.42847 5.4275 5.42653 5.42556 5.42459 5.42362 5.42265 5.42168 5.42072 5.41975 5.41878 5.41781 5.41685 5.41588 5.41492 5.41395 5.41299 5.41202 5.41106 5.4087 5.40601 5.40333 5.40065 5.39797 5.39834 5.41021 5.42214 5.43411 5.44614 5.45822 5.47036 5.48255 5.4948 5.5071 5.51945 5.53186 5.54433 5.55685 5.56943 5.57981 5.58972 5.59967 5.60966 5.61968 5.62974 5.63983 5.64996 5.66013 5.67033 5.68057 5.69084 5.70116 5.71151 5.7219 5.73232 5.74279 5.75329 5.76383 5.77441 5.78503 5.79569 5.80639 5.81713 5.8279 5.83872 5.84958 5.86047 5.87141 5.88239 5.89341 5.90447 5.91156 6.00779 6.11729 6.23056 18.3696 18.3791 18.3887 18.3982 18.4078 18.4174 18.427 18.4366 18.4462 18.4558 18.4654 18.4751 18.4847 18.4944 18.5041 18.5137 18.5234 18.5331 18.6388 18.6318 18.6248 18.6178 18.6108 13.4443 13.5426 13.6423 13.7435 13.8463 13.9506 14.0564 12.2058 12.2802 12.3556 12.4319 12.5091 12.5873 12.6665 12.7467 12.8279 12.9102 12.9935 13.0779 13.1634 12.8636 12.9233 12.9835 13.0443 13.1057 13.1676 13.2302 13.2933 8.17466 7.19445 13.4864 13.552 13.6183 13.9377 13.9608 13.984 14.0073 14.0307 13.1473 13.2994 13.4549 13.6142 13.7773 13.9443 14.1155 14.2203 14.5233 15.1204 15.7687 20 20 20 20 20 20 20 20 20 20 12.4105 20 20 20 20 20 20 20 20 20 12.8666 12.8968 12.9271 12.9576 12.9882 13.019 13.0499 13.0809 13.1121 13.1435 13.175 13.2066 13.2384 13.2704 13.3025 10.0671 6.75893 6.76808 6.77726 6.78645 6.79568 6.80493 6.8142 6.8235 6.83282 6.84217 6.85155 6.86095 6.87038 6.87983 6.88931 6.89882 6.90835 6.91791 6.92749 6.9371 2.23359 2.22899 2.2244 2.21984 2.21529 2.2097 2.20138 2.19312 2.18769 2.18747 2.18726 2.18704 2.18683 2.18661 2.1864 2.18618 2.18527 2.18395 2.18263 2.18131 2.18 2.17868 2.17737 2.1807 2.18428 2.18788 2.19148 2.1951 2.19838 2.2004 2.20243 2.20446 2.2065 2.20854 2.24173 2.2561 7.31247 7.32318 7.33392 7.3447 7.3555 7.36634 7.37721 7.38811 7.39904 7.41 7.421 7.43203 7.44309 7.45419 7.46532 7.47648 7.48768 7.49891 7.51017 7.52147 7.5328 7.54416 7.55556 7.567 7.57847 7.58997 7.60151 7.61308 7.62469 7.63634 7.64802 7.65973 7.67149 7.68327 7.6951 13.456 13.465 13.4739 13.4828 13.4918 13.5007 13.5097 13.5187 13.5276 13.5366 13.5457 13.5547 13.5637 13.5728 13.5818 13.5909 13.6 13.6091 13.6182 13.6273 13.6365 13.6456 13.6548 13.664 13.6732 13.6824 13.6916 13.7008 13.71 13.7193 13.7285 13.7378 13.7471 13.7564 13.7657 13.775 13.7844 13.7937 13.8031 13.8124 13.8218 13.8312 13.8406 13.8501 13.8595 13.869 14.6154 14.5987 14.5821 14.5655 14.549 14.5325 14.516 20 20 20 20 20 20 20 20 12.0841 12.06 12.0359 12.0119 11.988 11.9642 11.9406 11.917 11.8935 11.87 11.8467 11.8235 11.8004 11.7773 11.4772 11.475 11.4728 11.4707 11.4621 11.4528 11.2019 11.2315 11.2612 11.2911 11.3211 11.3513 11.3817 11.3843 11.3924 11.3993 11.4063 11.4171 11.4304 11.5988 11.6305 11.6623 11.6944 11.7266 11.759 11.7916 11.8243 11.8573 11.8904 11.642 11.6442 11.6464 11.6487 11.6509 11.6531 11.6553 11.6576 11.6598 11.662 11.6642 11.6665 11.6687 11.6709
5.61811 5.61696 5.61581 5.61466 5.6135 5.60689 5.4329 5.43193 5.43096 5.42999 5.42902 5.42805 5.42708 5.42611 5.42514 5.42417 5.4232 5.42223 5.42126 5.42029 5.41933 5.41836 5.41739 5.41643 5.41546 5.41449 5.41353 5.41224 5.40955 5.40687 5.40419 5.40151 5.39883 5.40077 5.41266 5.42459 5.43658 5.44862 5.46071 5.47286 5.48506 5.49732 5.50963 5.52199 5.53442 5.54689 5.55943 5.57165 5.58153 5.59146 5.60141 5.6114 5.62143 5.63149 5.64159 5.65173 5.6619 5.67211 5.68236 5.69264 5.70296 5.71332 5.72371 5.73415 5.74462 5.75513 5.76568 5.77626 5.78689 5.79755 5.80826 5.819 5.82979 5.84061 5.85148 5.86238 5.87333 5.88431 5.89534 5.9035 5.93229 6.04673 6.15759 18.3304 18.3399 18.3494 18.3589 18.3685 18.378 18.3876 18.3971 18.4067 18.4163 18.4259 18.4355 18.4451 18.4547 18.4643 18.474 18.4836 18.4933 18.5029 18.6076 18.6006 18.5937 18.5867 18.5798 16.4389 16.456 16.4731 16.4902 16.5074 13.5843 13.6847 12.2039 12.2784 12.3537 12.43 12.5072 12.5854 12.6645 12.7447 12.8259 12.9081 12.9914 13.0758 13.1613 13.2479 12.9076 12.9677 13.0284 13.0896 13.1514 13.2138 7.92682 7.00178 13.4045 13.4694 13.5348 13.6009 13.911 13.9341 13.9572 13.9804 14.0036 13.1217 13.2731 13.4281 13.5867 13.7491 13.9155 14.0859 14.1925 14.2165 14.2405 14.29 14.8677 15.494 20 20 20 20 20 20 20 20 12.2077 20 20 20 20 20 20 20 20 20 12.8486 12.8787 12.9089 12.9393 12.9698 13.0005 13.0313 13.0623 13.0934 13.1247 13.1561 13.1876 13.2193 13.2512 13.2832 13.3154 13.3477 6.75338 6.76251 6.77167 6.78085 6.79006 6.7993 6.80855 6.81784 6.82715 6.83648 6.84584 6.85523 6.86464 6.87408 6.88354 6.89303 6.90254 6.91209 6.92165 2.23361 2.22901 2.22442 2.21985 2.2153 2.20949 2.20117 2.19291 2.1877 2.18748 2.18727 2.18705 2.18684 2.18662 2.18641 2.18619 2.18517 2.18385 2.18253 2.18122 2.1799 2.17859 2.17728 2.18071 2.18429 2.18789 2.1915 2.19512 2.19827 2.2003 2.20233 2.20436 2.2064 2.20844 2.24171 2.25576 7.29531 7.30597 7.31666 7.32738 7.33814 7.34892 7.35974 7.37059 7.38147 7.39238 7.40333 7.4143 7.42531 7.43636 7.44743 7.45854 7.46969 7.48086 7.49207 7.50331 7.51459 7.5259 7.53724 7.54862 7.56004 14.3796 14.3395 14.2996 14.2599 13.3881 13.3969 13.4057 13.4146 13.4234 13.4323 13.4412 13.4501 13.459 13.4679 13.4768 13.4857 13.4947 13.5036 13.5126 13.5216 13.5306 13.5396 13.5486 13.5576 13.5667 13.5757 13.5848 13.5939 13.603 13.6121 13.6212 13.6303 13.6395 13.6486 13.6578 13.667 13.6762 13.6854 13.6946 13.7038 13.713 13.7223 13.7316 13.7408 13.7501 13.7594 13.7687 13.7781 13.7874 13.7968 13.8061 13.8155 13.8249 13.8343 13.8437 13.8531 13.8626 14.5487 14.5321 14.5157 14.4992 14.4828 20 20 20 20 20 12.165 12.1405 12.1161 12.0919 12.0677 12.0436 12.0195 11.9956 11.9718 11.9481 11.9245 11.9009 11.8775 11.8541 11.8309 11.8077 11.7846 11.7617 11.7388 11.716 11.479 11.4768 11.4746 11.4676 11.4583 11.1973 11.2268 11.2565 11.2863 11.3163 11.3465 11.3768 11.3842 11.3842 11.392 11.4053 11.4186 11.4319 11.5938 11.6254 11.6573 11.6893 11.7215 11.7539 11.7864 11.8192 11.6255 11.6277 11.63 11.6322 11.6344 11.6366 11.6388 11.641 11.6433 11.6455 11.6477 11.6499 11.6521 11.6544 11.6566
5.62019 5.61904 5.61789 5.61673 5.61558 5.60343 5.43442 5.43345 5.43248 5.43151 5.43054 5.42956 5.42859 5.42762 5.42665 5.42568 5.42471 5.42374 5.42278 5.42181 5.42084 5.41987 5.4189 5.41794 5.41697 5.416 5.41504 5.4131 5.41041 5.40773 5.40505 5.40236 5.39969 5.40321 5.4151 5.42705 5.43905 5.4511 5.4632 5.47536 5.48757 5.49984 5.51216 5.52454 5.53697 5.54946 5.56201 5.57337 5.58326 5.59319 5.60315 5.61315 5.62318 5.63325 5.64336 5.6535 5.66368 5.6739 5.68415 5.69444 5.70476 5.71513 5.72553 5.73597 5.74645 5.75697 5.76752 5.77811 5.78875 5.79942 5.81013 5.82088 5.83167 5.8425 5.85337 5.86429 5.87524 5.88623 5.89548 5.90158 5.97025 6.08617 6.19843 18.3009 18.3103 18.3198 18.3293 18.3388 18.3483 18.3578 18.3674 18.3769 18.3864 18.396 18.4056 18.4152 18.4247 18.4343 18.4439 18.4536 18.4632 18.5835 16.2772 16.2939 16.3106 16.3274 16.3443 16.3611 16.378 16.395 16.4119 16.4289 16.446 16.463 12.2021 12.2765 12.3518 12.4281 12.5053 12.5834 12.6626 12.7427 12.8239 12.9061 12.9894 13.0737 13.1591 13.2457 12.892 12.9519 13.0124 13.0735 13.1352 7.69357 13.2602 13.3236 13.3877 13.4523 13.5176 13.5835 13.6501 13.9074 13.9304 13.9535 13.9767 13.0961 13.247 13.4013 13.5593 13.7211 13.8867 14.0565 14.1649 14.1887 14.2127 14.2367 14.2609 14.2851 14.6232 15.2287 20 20 20 20 20 20 20 12.5455 20 20 20 20 20 20 20 20 20 12.8606 12.8908 12.9211 12.9515 12.9821 13.0128 13.0437 13.0747 13.1059 13.1372 13.1687 13.2003 13.2321 13.264 13.2961 13.3283 6.73874 6.74783 6.75695 6.7661 6.77526 6.78446 6.79367 6.80292 6.81219 6.82148 6.8308 6.84014 6.84951 6.85891 6.86833 6.87778 6.88725 6.89675 6.90628 2.23363 2.22902 2.22444 2.21987 2.21532 2.20927 2.20095 2.1927 2.18771 2.18749 2.18728 2.18706 2.18685 2.18663 2.18642 2.1862 2.18508 2.18376 2.18244 2.18112 2.17981 2.17849 2.17718 2.18072 2.18431 2.18791 2.19151 2.19513 2.19817 2.20019 2.20222 2.20425 2.20629 2.20833 2.24137 2.25541 7.27823 7.28884 7.29948 7.31015 7.32086 7.33159 7.34236 7.35315 7.36398 7.37484 7.38574 7.39666 7.40762 7.41861 7.42963 7.44069 13.5699 13.5301 13.4904 13.451 13.4118 13.3729 13.3342 13.2957 14.4017 14.3614 14.3214 14.2816 14.2421 14.2027 13.3821 13.391 13.3998 13.4086 13.4175 13.4263 13.4352 13.4441 13.453 13.4619 13.4708 13.4797 13.4886 13.4976 13.5066 13.5155 13.5245 13.5335 13.5425 13.5516 13.5606 13.5696 13.5787 13.5878 13.5969 13.606 13.6151 13.6242 13.6333 13.6425 13.6516 13.6608 13.67 13.6792 13.6884 13.6976 13.7068 13.7161 13.7253 13.7346 13.7439 13.7532 13.7625 13.7718 13.7811 13.7905 13.7998 13.8092 13.8186 13.828 13.8374 13.8468 13.8562 14.4825 14.4662 14.4498 20 12.272 12.247 12.2222 12.1975 12.1729 12.1483 12.1239 12.0996 12.0754 12.0512 12.0272 12.0032 11.9794 11.9556 11.932 11.9084 11.8849 11.8616 11.8383 11.8151 11.792 11.769 11.746 11.7232 11.7005 11.6778 11.6552 11.4808 11.4786 11.4731 11.4637 11.1926 11.2221 11.2518 11.2816 11.3116 11.3417 11.372 11.3896 11.3802 11.3935 11.4068 11.4201 11.4334 11.5888 11.6204 11.6522 11.6842 11.7164 11.7487 11.6091 11.6113 11.6135 11.6157 11.6179 11.6201 11.6224 11.6246 11.6268 11.629 11.6312 11.6334 11.6356 11.6379 11.6401 11.6423
5.62228 5.62112 5.61997 5.61881 5.61766 5.59998 5.43595 5.43497 5.434 5.43303 5.43205 5.43108 5.43011 5.42914 5.42817 5.4272 5.42623 5.42526 5.42429 5.42332 5.42235 5.42139 5.42042 5.41945 5.41848 5.41752 5.41655 5.41396 5.41127 5.40859 5.4059 5.40322 5.40054 5.40565 5.41755 5.42951 5.44151 5.45358 5.46569 5.47786 5.49009 5.50236 5.5147 5.52709 5.53953 5.55203 5.56459 5.57509 5.58499 5.59493 5.60489 5.6149 5.62494 5.63501 5.64513 5.65528 5.66546 5.67568 5.68594 5.69624 5.70657 5.71694 5.72735 5.7378 5.74828 5.7588 5.76937 5.77997 5.79061 5.80128 5.812 5.82276 5.83356 5.8444 5.85528 5.86619 5.87715 5.88747 5.89355 5.89965 6.0087 6.12614 18.262 18.2714 18.2809 18.2903 18.2998 18.3092 18.3187 18.3282 18.3377 18.3472 18.3567 18.3663 18.3758 18.3853 18.3949 18.4045 16.135 16.1514 16.1679 16.1844 16.2009 16.2175 16.2341 16.2507 16.2674 16.2841 16.3008 16.3176 16.3344 16.3512 16.3681 16.385 16.402 12.2747 12.35 12.4262 12.5034 12.5815 12.6606 12.7407 12.8219 12.904 12.9873 13.0716 13.157 13.2436 13.3312 12.9362 12.9966 13.0575 7.47366 13.1811 13.2437 13.307 13.3709 13.4354 13.5005 13.5662 13.6326 13.8808 13.9038 13.9268 13.9499 13.973 13.2209 13.3747 13.532 13.6931 13.8581 14.0271 14.1373 14.1611 14.185 14.2089 14.2329 14.257 14.2812 14.3055 14.3867 14.9724 20 20 20 20 20 12.3383 20 20 20 20 20 20 20 20 20 20 12.8727 12.9029 12.9333 12.9638 12.9944 13.0252 13.0561 13.0872 13.1184 13.1498 13.1813 13.213 13.2449 13.2769 13.309 13.3413 6.73322 6.7423 6.7514 6.76053 6.76968 6.77886 6.78806 6.79729 6.80654 6.81582 6.82512 6.83445 6.84381 6.85319 6.86259 6.87203 6.88148 6.89097 2.23364 2.22904 2.22445 2.21988 2.21534 2.20905 2.20074 2.19248 2.18772 2.1875 2.18729 2.18707 2.18686 2.18664 2.18643 2.18621 2.18498 2.18366 2.18234 2.18103 2.17971 2.1784 2.17717 2.18074 2.18432 2.18792 2.19153 2.19515 2.19806 2.20009 2.20212 2.20415 2.20618 2.20822 2.24103 2.25507 7.26123 7.27179 7.28238 7.293 7.30366 7.31434 13.4721 13.4314 13.391 13.3508 13.7837 13.7426 13.7017 13.6611 13.6207 13.5805 13.5406 13.5009 13.4614 13.4222 13.3832 13.3444 13.3058 14.4238 14.3834 14.3433 14.3034 14.2637 14.2242 14.185 14.1459 13.3762 13.385 13.3938 13.4027 13.4115 13.4204 13.4292 13.4381 13.447 13.4559 13.4648 13.4737 13.4826 13.4916 13.5005 13.5095 13.5185 13.5275 13.5365 13.5455 13.5545 13.5635 13.5726 13.5817 13.5907 13.5998 13.6089 13.618 13.6272 13.6363 13.6454 13.6546 13.6638 13.673 13.6822 13.6914 13.7006 13.7098 13.7191 13.7283 13.7376 13.7469 13.7562 13.7655 13.7748 13.7842 13.7935 13.8029 13.8122 13.8216 13.831 13.8404 12.3554 12.3301 12.305 12.2799 12.255 12.2301 12.2053 12.1807 12.1561 12.1317 12.1073 12.0831 12.0589 12.0348 12.0109 11.987 11.9632 11.9395 11.9159 11.8924 11.869 11.8457 11.8225 11.7993 11.7763 11.7533 11.7305 11.7077 11.685 11.6624 20 20 11.4848 11.4826 11.4785 11.4692 11.188 11.2174 11.2471 11.2769 11.3068 11.337 11.3672 11.3918 11.3817 11.395 11.4083 11.4216 11.4334 11.5838 11.6154 11.6472 11.5905 11.5927 11.5949 11.5971 11.5993 11.6015 11.6037 11.6059 11.6081 11.6104 11.6126 11.6148 11.617 11.6192 11.6214 11.6236 11.6258 11.628
5.62436 5.62321 5.62205 5.6209 5.61974 5.59652 5.43747 5.43649 5.43552 5.43455 5.43358 5.4326 5.43163 5.43066 5.42969 5.42872 5.42775 5.42678 5.42581 5.42484 5.42387 5.4229 5.42193 5.42096 5.42 5.41903 5.41752 5.41482 5.41213 5.40945 5.40676 5.40408 5.4014 5.40809 5.42 5.43197 5.44399 5.45606 5.46819 5.48037 5.4926 5.50489 5.51724 5.52964 5.54209 5.55461 5.56695 5.57682 5.58672 5.59666 5.60664 5.61665 5.62669 5.63678 5.64689 5.65705 5.66724 5.67747 5.68773 5.69804 5.70838 5.71875 5.72917 5.73962 5.75011 5.76064 5.77121 5.78182 5.79247 5.80315 5.81388 5.82464 5.83545 5.84629 5.85718 5.8681 5.87907 5.88555 5.89163 5.93318 6.04765 6.16663 18.2327 18.2421 18.2515 18.2609 18.2703 18.2798 18.2892 18.2987 18.3081 18.3176 18.3271 15.9791 15.9952 16.0114 16.0275 16.0438 16.06 16.0763 16.0926 16.109 16.1253 16.1417 16.1582 16.1747 16.1912 16.2077 16.2243 16.2409 16.2576 16.2743 16.291 16.3077 16.3245 12.2728 12.3481 12.4243 12.5014 12.5795 12.6586 12.7387 12.8198 12.902 12.9852 13.0695 13.1549 13.2414 13.329 13.4179 8.26711 7.26597 13.1028 13.1648 13.2273 13.2904 13.3541 13.4184 13.4834 13.549 13.6152 13.6821 13.8772 13.9001 13.9231 13.9462 13.195 13.3481 13.5048 13.6653 13.8296 13.9979 14.1099 14.1336 14.1573 11.3143 14.2051 14.2291 14.2532 14.2774 14.3017 14.326 14.3504 14.7245 20 20 20 20 12.6834 20 20 20 20 20 20 20 20 20 20 12.8848 12.915 12.9455 12.976 13.0067 13.0376 13.0686 13.0997 13.131 13.1624 13.194 13.2258 13.2577 13.2897 13.3219 13.3543 6.7277 6.73677 6.74586 6.75497 6.76411 6.77327 6.78246 6.79167 6.80091 6.81017 6.81946 6.82877 6.83811 6.84748 6.85687 6.86628 6.87573 2.23366 2.22905 2.22447 2.2199 2.21535 2.20884 2.20052 2.19227 2.18773 2.18751 2.1873 2.18708 2.18687 2.18665 2.18644 2.18621 2.18488 2.18356 2.18225 2.18093 2.17961 2.1783 2.17718 2.18075 2.18434 2.18793 2.19154 2.19516 2.19796 2.19998 2.20201 2.20404 2.20608 2.20812 2.24069 2.25473 13.6905 13.6485 13.6067 13.5652 13.5239 13.4829 13.9197 13.8778 13.8361 13.7946 13.7534 13.7125 13.6718 13.6313 13.5911 13.5511 13.5113 13.4718 13.4325 13.3934 13.3546 13.316 14.446 14.4055 14.3653 14.3252 14.2854 14.2458 14.2065 14.1673 14.1284 14.0896 13.3703 13.3791 13.3879 13.3967 13.4055 13.4144 13.4232 13.4321 13.441 13.4499 13.4588 13.4677 13.4766 13.4855 13.4945 13.5035 13.5124 13.5214 13.5304 13.5394 13.5484 13.5575 13.5665 13.5756 13.5846 13.5937 13.6028 13.6119 13.621 13.6301 13.6393 13.6484 13.3499 13.6668 13.676 13.6852 13.6944 13.7036 13.7129 13.7221 13.7314 13.7406 13.7499 13.7592 13.7686 13.7779 13.7872 12.44 12.4144 12.3889 12.3635 12.3382 12.313 12.2879 12.2629 12.238 12.2132 12.1885 12.1639 12.1395 12.1151 12.0908 12.0666 12.0425 12.0185 11.9946 11.9708 11.947 11.9234 11.8999 11.8765 11.8531 11.8299 11.8067 11.7836 11.7606 11.7378 11.715 11.6922 11.6696 20 20 20 20 20 11.4866 11.484 11.4747 11.1833 11.2128 11.2424 11.2722 11.3021 11.3322 11.3624 11.3929 11.3832 11.3965 11.4098 11.4231 11.4326 11.5788 11.5742 11.5764 11.5786 11.5808 11.583 11.5852 11.5874 11.5896 11.5918 11.594 11.5962 11.5984 11.6006 11.6028 11.605 11.6072 11.6094 11.6116 11.6138
5.62645 5.62529 5.62414 5.62298 5.62183 5.59308 5.43899 5.43802 5.43704 5.43607 5.4351 5.43412 5.43315 5.43218 5.43121 5.43024 5.42927 5.42829 5.42732 5.42635 5.42538 5.42441 5.42345 5.42248 5.42151 5.42054 5.41838 5.41569 5.41299 5.41031 5.40762 5.40494 5.40226 5.41053 5.42245 5.43443 5.44646 5.45854 5.47068 5.48287 5.49512 5.50742 5.51978 5.53219 5.54466 5.55718 5.56867 5.57854 5.58845 5.5984 5.60838 5.6184 5.62845 5.63854 5.64866 5.65882 5.66902 5.67926 5.68953 5.69984 5.71018 5.72057 5.73099 5.74145 5.75195 5.76249 5.77306 5.78367 5.79433 5.80502 5.81575 5.82652 5.83734 5.84819 5.85908 5.87001 5.87757 5.88363 5.88971 5.97116 6.08711 18.8278 18.8082 18.2128 18.2222 18.2316 18.241 18.2504 18.2598 18.2692 15.8628 15.8737 15.8897 15.9056 15.9216 15.9376 15.9536 15.9697 15.9858 16.0019 16.0181 16.0342 16.0505 16.0667 16.083 16.0994 16.1157 16.1321 16.1485 16.165 16.1815 16.198 16.2146 16.2312 16.2478 12.271 12.3462 12.4224 12.4995 12.5776 12.6567 12.7367 12.8178 12.8999 12.9831 13.0674 13.1528 13.2392 13.3269 8.01373 7.06951 13.0255 13.0867 13.1485 13.2109 13.2738 13.3374 13.4016 13.4663 13.5318 13.5978 13.6645 13.8508 13.8736 13.8965 13.9195 13.9426 13.3217 13.4778 13.6376 13.8012 13.9689 14.0825 14.1061 14.1298 14.1536 14.1774 14.2013 11.374 11.5036 14.2736 14.2978 14.3221 14.3466 14.3711 14.4847 15.0786 20 12.4716 20 20 20 20 20 20 20 20 20 20 12.8667 12.8969 12.9272 12.9577 12.9883 13.0191 13.05 13.081 13.1122 13.1436 13.1751 13.2067 13.2385 13.2705 13.3026 13.3349 13.3673 6.7222 6.73125 6.74032 6.74942 6.75854 6.76769 6.77687 6.78606 6.79528 6.80453 6.81381 6.8231 6.83243 6.84178 6.85115 6.86055 2.23368 2.22907 2.22449 2.21992 2.21537 2.20862 2.20031 2.19206 2.18774 2.18753 2.18731 2.18709 2.18688 2.18666 2.18645 2.18611 2.18479 2.18347 2.18215 2.18083 2.17952 2.1782 2.17719 2.18077 2.18435 2.18795 2.19156 2.19518 2.19785 2.19988 2.20191 2.20394 2.20597 2.20801 2.24035 2.25438 14.5335 14.1015 14.0584 14.0156 13.9731 13.9308 13.8888 13.8471 13.8056 13.7643 13.7233 13.6825 13.642 13.6017 13.5616 13.5218 13.4822 13.4429 13.4037 13.3648 13.3262 13.2877 14.4277 14.3873 14.3471 14.3072 14.2675 14.228 14.1887 14.1497 14.1108 14.0722 14.0338 13.3644 13.3732 13.382 13.3908 13.3996 13.4084 13.4173 13.4261 13.435 13.4439 13.4528 13.4617 13.4706 13.4795 13.4885 13.4974 13.5064 13.5154 13.5243 13.5333 13.5424 13.5514 13.5604 13.5695 13.5785 13.5876 13.5967 13.6058 13.6149 13.624 13.3603 13.6423 13.6514 13.6606 13.6698 13.679 13.6882 13.6974 13.7066 13.7159 13.7251 12.5518 12.5258 12.4998 12.4739 12.4482 12.4225 12.397 12.3716 12.3462 12.321 12.2959 12.2708 12.2459 12.2211 12.1964 12.1718 12.1473 12.1228 12.0985 12.0743 12.0501 12.0261 12.0022 11.9783 11.9546 11.9309 11.9074 11.8839 11.8605 11.8373 11.8141 11.791 11.768 11.745 11.7222 11.6995 11.6768 20 20 20 20 20 20 20 20 11.4884 11.4801 11.1787 11.2081 11.2377 11.2674 11.2974 11.3274 11.3576 11.388 11.3847 11.398 11.4113 11.4246 11.4317 11.5601 11.5623 11.5645 11.5667 11.5689 11.5711 11.5732 11.5754 11.5776 11.5798 11.582 11.5842 11.5864 11.5886 11.5908 11.593 11.5952 11.5974 11.5996
5.62853 5.62738 5.62622 5.62507 5.62391 5.58964 5.44052 5.43954 5.43857 5.43759 5.43662 5.43565 5.43467 5.4337 5.43273 5.43176 5.43078 5.42981 5.42884 5.42787 5.4269 5.42593 5.42496 5.42399 5.42302 5.42194 5.41924 5.41655 5.41386 5.41117 5.40848 5.4058 5.40311 5.41297 5.42491 5.4369 5.44894 5.46103 5.47318 5.48538 5.49764 5.50995 5.52232 5.53474 5.54722 5.55976 5.57039 5.58027 5.59019 5.60014 5.61013 5.62015 5.63021 5.6403 5.65043 5.6606 5.67081 5.68105 5.69132 5.70164 5.71199 5.72238 5.73281 5.74328 5.75378 5.76433 5.77491 5.78553 5.79619 5.80689 5.81763 5.82841 5.83923 5.85009 5.86098 5.86961 5.87566 5.88172 5.89657 6.00962 6.12709 18.8076 18.7881 18.7685 18.7491 18.7296 18.7102 18.6845 18.2305 18.2399 18.2493 15.8565 15.8658 15.8751 15.8843 15.8936 15.9029 15.9122 15.9216 15.9309 15.9442 15.9602 15.9763 15.9924 16.0086 16.0247 16.041 16.0572 16.0735 16.0898 16.1061 16.1225 16.1389 16.1553 16.1718 16.1883 12.3443 12.4205 12.4976 12.5756 12.6547 12.7347 12.8158 12.8979 12.981 13.0653 13.1506 13.2371 7.77541 13.4134 13.5034 13.0096 13.0707 13.1323 13.1945 13.2573 13.3207 13.3847 13.4493 13.5146 13.5805 13.647 13.7142 13.8472 13.87 13.8929 13.9159 13.2953 13.4508 13.61 13.773 13.9399 14.0553 14.0788 14.1024 14.1261 14.1498 14.1736 14.1975 14.2215 14.2456 11.4344 11.5653 11.6993 11.8364 14.3672 14.3917 14.4164 12.2669 12.8243 20 20 20 20 20 20 20 20 20 20 12.8788 12.909 12.9394 12.9699 13.0006 13.0314 13.0624 13.0935 13.1248 13.1562 13.1877 13.2194 13.2513 13.2833 13.3155 13.3478 13.3803 6.71671 6.72574 6.7348 6.74388 6.75299 6.76212 6.77128 6.78046 6.78967 6.7989 6.80816 6.81744 6.82675 6.83608 6.84544 2.23369 2.22909 2.2245 2.21993 2.21539 2.20841 2.2001 2.19185 2.18775 2.18754 2.18732 2.1871 2.18689 2.18667 2.18646 2.18601 2.18469 2.18337 2.18205 2.18074 2.17942 2.17811 2.17721 2.18078 2.18437 2.18796 2.19157 2.19519 2.19775 2.19977 2.2018 2.20383 2.20587 2.20791 2.24001 2.25404 10.2101 10.3188 10.4299 10.5433 13.942 13.8999 13.8581 13.8165 13.7752 13.7341 13.6933 13.6527 13.6123 13.5722 13.5323 13.4927 13.4532 13.414 13.3751 13.3364 13.2978 14.4499 14.4094 14.3691 14.3291 14.2892 14.2496 14.2102 14.171 14.1321 14.0933 14.0548 14.0165 13.9783 13.3585 13.3673 13.376 13.3848 13.3937 13.4025 13.4113 13.4202 13.429 13.4379 13.4468 13.4557 13.4646 13.4735 13.4824 13.4914 13.5003 13.5093 13.5183 13.5273 13.5363 13.5453 13.5543 13.5634 13.5724 13.5815 13.5906 13.4306 13.3708 13.6179 13.627 13.6361 13.6453 13.6544 13.6636 13.6728 12.6391 12.6127 12.5864 12.5602 12.534 12.508 12.4822 12.4564 12.4307 12.4051 12.3796 12.3543 12.329 12.3039 12.2788 12.2539 12.229 12.2043 12.1796 12.1551 12.1306 12.1062 12.082 12.0578 12.0338 12.0098 11.9859 11.9621 11.9385 11.9149 11.8914 11.868 11.8447 11.8214 11.7983 11.7753 11.7523 11.7295 11.7067 11.684 20 20 20 20 20 20 20 20 20 20 20 11.4856 11.174 11.2034 11.233 11.2627 11.2926 11.3227 11.3529 11.3832 11.3862 11.3995 11.4128 11.4261 11.4309 11.5482 11.5504 11.5526 11.5548 11.557 11.5592 11.5613 11.5635 11.5657 11.5679 11.5701 11.5723 11.5745 11.5767 11.5789 11.5811 11.5833 11.5855
5.63062 5.62947 5.62831 5.62715 5.626 5.5862 5.44204 5.44106 5.44009 5.43912 5.43814 5.43717 5.43619 5.43522 5.43425 5.43328 5.4323 5.43133 5.43036 5.42939 5.42842 5.42745 5.42648 5.42551 5.42454 5.4228 5.4201 5.41741 5.41472 5.41203 5.40934 5.40665 5.40397 5.41542 5.42736 5.43936 5.45142 5.46352 5.47568 5.4879 5.50016 5.51249 5.52487 5.5373 5.54979 5.56226 5.57211 5.582 5.59192 5.60188 5.61187 5.6219 5.63197 5.64207 5.6522 5.66238 5.67259 5.68284 5.69312 5.70344 5.7138 5.7242 5.73464 5.74511 5.75562 5.76617 5.77676 5.78739 5.79805 5.80876 5.81951 5.83029 5.84112 5.85198 5.86167 5.8677 5.87375 5.8798 5.93407 6.04858 6.16759 18.7875 18.768 18.7485 18.729 18.7096 18.6902 18.6465 18.5915 18.5368 18.5051 18.4982 15.8503 15.8596 15.8688 15.8781 15.8874 15.8967 15.906 15.9153 15.9246 15.9339 15.9433 15.9527 15.962 15.9714 15.9808 15.9902 15.9996 16.0152 16.0314 16.0477 16.0639 16.0802 16.0965 16.1129 12.3425 12.4186 12.4957 12.5737 12.6527 12.7327 12.8138 12.8958 12.979 13.0632 13.1485 7.55087 13.3225 13.4112 13.5011 12.9938 13.0547 13.1161 13.1782 13.2408 13.3041 13.3679 13.4324 13.4975 13.5632 13.6296 13.6966 13.8208 13.8436 13.8664 13.8893 13.2691 13.4239 13.5825 13.7448 13.9111 14.0282 14.0516 14.0751 14.0987 14.1223 14.146 14.1699 14.1938 14.2177 14.2418 14.2659 14.2901 11.4955 11.6278 11.7632 11.9018 12.0437 12.6079 14.5841 20 20 20 20 20 20 20 20 20 20 12.8909 12.9212 12.9516 12.9822 13.0129 13.0438 13.0748 13.106 13.1373 13.1688 13.2004 13.2322 13.2641 13.2962 13.3284 13.3608 13.3934 6.71122 6.72024 6.72928 6.73835 6.74745 6.75656 6.76571 6.77487 6.78406 6.79328 6.80252 6.81179 6.82108 6.8304 2.23371 2.2291 2.22452 2.21995 2.2154 2.20819 2.19988 2.19163 2.18776 2.18755 2.18733 2.18712 2.1869 2.18669 2.18647 2.18591 2.18459 2.18327 2.18196 2.18064 2.17933 2.17801 2.17722 2.1808 2.18438 2.18798 2.19159 2.19521 2.19764 2.19967 2.2017 2.20373 2.20576 2.2078 2.23967 2.25369 14.0811 14.0382 13.9955 13.9531 13.911 13.8691 13.8275 13.7861 13.7449 10.1806 10.2887 10.3991 13.5828 13.5428 13.5031 13.4636 13.4244 13.3854 13.3466 13.308 13.2696 14.4315 14.3911 14.351 14.311 14.2713 14.2318 14.1925 14.1534 14.1145 14.0759 14.0374 13.9992 13.9612 20 13.3526 13.3613 13.3701 13.3789 13.3877 13.3965 13.4054 13.4142 13.4231 13.4319 13.4408 13.4497 13.4586 13.4675 13.4764 13.4854 13.4943 13.5033 13.5122 13.5212 13.5302 13.5392 13.5482 13.5573 13.5016 13.4412 13.3813 13.5935 13.6026 13.6117 13.6208 12.7277 12.7009 12.6742 12.6476 12.6211 12.5947 12.5685 12.5424 12.5163 12.4904 12.4646 12.4389 12.4132 12.3877 12.3624 12.3371 12.3119 12.2868 12.2618 12.2369 12.2121 12.1874 12.1629 12.1384 12.114 12.0897 12.0655 12.0414 12.0174 11.9935 11.9697 11.946 11.9224 11.8989 11.8754 11.8521 11.8288 11.8057 11.7826 11.7596 11.7368 11.714 11.6912 20 20 20 20 20 20 20 20 20 20 20 20 20 11.4885 11.1694 11.1988 11.2283 11.258 11.2879 11.3179 11.3481 11.3784 11.3877 11.401 11.4143 11.4275 11.4301 11.5364 11.5386 11.5407 11.5429 11.5451 11.5473 11.5495 11.5517 11.5538 11.556 11.5582 11.5604 11.5626 11.5648 11.567 11.5692 11.5714
5.63271 5.63156 5.6304 5.62924 5.62808 5.58276 5.44357 5.44259 5.44161 5.44064 5.43966 5.43869 5.43772 5.43674 5.43577 5.4348 5.43382 5.43285 5.43188 5.43091 5.42994 5.42897 5.42799 5.42702 5.42605 5.42367 5.42097 5.41827 5.41558 5.41289 5.4102 5.40751 5.40596 5.41787 5.42982 5.44183 5.4539 5.46601 5.47818 5.49041 5.50269 5.51502 5.52742 5.53986 5.55236 5.56397 5.57383 5.58373 5.59365 5.60362 5.61362 5.62365 5.63373 5.64383 5.65398 5.66416 5.67437 5.68463 5.69492 5.70525 5.71561 5.72602 5.73646 5.74694 5.75746 5.76801 5.77861 5.78924 5.79992 5.81063 5.82138 5.83218 5.84301 5.85376 5.85977 5.8658 5.87184 5.87789 5.97206 6.08805 6.18181 18.7674 18.7479 18.7285 18.7091 18.6897 18.6637 18.6086 18.5538 18.4994 18.4809 18.4795 18.478 15.8441 15.8533 15.8626 15.8718 15.8811 15.8904 15.8997 15.909 15.9183 15.9277 15.937 15.9464 15.9557 15.9651 15.9745 15.9839 15.9933 16.0027 16.0121 16.0216 16.031 16.0405 16.05 16.0594 12.4167 12.4937 12.5717 12.6507 12.7307 12.8117 12.8938 12.9769 13.0611 7.33892 13.2328 13.3203 13.409 13.4989 13.59 13.0387 13.1 13.1619 13.2244 13.2875 13.3512 13.4155 13.4804 13.5459 13.6121 13.679 13.7465 13.8173 13.84 13.8628 13.8856 13.3972 13.5551 13.7168 13.8823 14.0011 14.0245 14.0479 14.0714 14.0949 14.1186 14.1423 14.1661 14.19 14.2139 14.238 14.2621 14.2863 14.3106 14.335 11.5572 11.6909 11.8278 11.9679 12.1114 12.2584 12.409 20 20 20 20 20 20 20 20 12.903 12.9334 12.9639 12.9945 13.0253 13.0562 13.0873 13.1185 13.1499 13.1814 13.2131 13.245 13.277 13.3091 13.3414 13.3739 13.4065 6.70574 6.71475 6.72378 6.73283 6.74191 6.75101 6.76014 6.76929 13.7073 14.6735 14.645 14.6166 14.5883 2.23373 2.22912 2.22453 2.21997 2.21542 2.20798 2.19967 2.19142 2.18777 2.18756 2.18734 2.18713 2.18691 2.1867 2.18648 2.18582 2.1845 2.18318 2.18186 2.18054 2.17923 2.17792 2.17724 2.18081 2.1844 2.18799 2.1916 2.19522 2.19754 2.19956 2.20159 2.20362 2.20566 2.2077 2.23933 2.25335 14.0495 14.0068 13.9643 13.9221 13.8801 13.8384 13.797 13.7558 13.7148 13.6741 13.6336 13.5933 13.5533 13.5136 13.474 13.4347 13.3956 13.3568 13.3182 10.2587 14.4538 14.4132 14.3729 14.3329 14.293 14.2534 14.214 14.1748 14.1358 14.097 14.0585 14.0201 13.982 20 20 14.8452 13.3467 13.3554 13.3642 13.373 13.3818 13.3906 13.3994 13.4083 13.4171 13.426 13.4348 13.4437 13.4526 13.4615 13.4704 13.4793 13.4883 13.4972 13.5062 13.5152 13.5242 13.5332 13.5123 13.4518 13.3918 13.5693 13.5783 13.5874 13.5965 12.7362 12.7094 12.6827 12.656 12.6295 12.6031 12.5768 12.5507 12.5246 12.4986 12.4728 12.447 12.4214 12.3959 12.3704 12.3451 12.3199 12.2948 12.2697 12.2448 12.22 12.1953 12.1707 12.1462 12.1217 12.0974 12.0732 12.0491 12.0251 12.0011 11.9773 11.9535 11.9299 11.9063 11.8829 11.8595 11.8362 11.8131 11.79 11.767 11.744 11.7212 11.6985 13.1305 20 20 20 20 20 20 20 20 20 20 20 20 20 20 11.4904 11.1648 11.1941 11.2236 11.2533 11.2831 11.3131 11.3433 11.3736 11.3892 11.4025 11.4158 11.4267 11.4292 11.5246 11.5267 11.5289 11.5311 11.5333 11.5354 11.5376 11.5398 11.542 11.5442 11.5464 11.5485 11.5507 11.5529 11.5551 11.5573
5.63481 5.63365 5.63249 5.63133 5.63017 5.57933 5.44509 5.44412 5.44314 5.44216 5.44119 5.44021 5.43924 5.43826 5.43729 5.43632 5.43534 5.43437 5.4334 5.43243 5.43146 5.43048 5.42951 5.42854 5.42723 5.42453 5.42183 5.41913 5.41644 5.41375 5.41106 5.40837 5.4084 5.42032 5.43228 5.44431 5.45638 5.46851 5.48069 5.49293 5.50522 5.51756 5.52997 5.54242 5.55494 5.56569 5.57556 5.58546 5.59539 5.60536 5.61537 5.62541 5.63549 5.6456 5.65575 5.66594 5.67616 5.68642 5.69672 5.70705 5.71743 5.72784 5.73829 5.74877 5.7593 5.76986 5.78046 5.7911 5.80178 5.81251 5.82327 5.83406 5.8449 5.85186 5.85787 5.86389 5.86993 5.89745 6.01053 6.12804 6.18164 18.7473 18.7279 18.7085 18.6891 18.6698 18.6258 18.5709 18.5164 18.4797 18.4783 18.4768 18.4754 18.4739 15.8379 15.8471 15.8563 15.8656 15.8749 15.8841 15.8934 15.9027 15.912 15.9214 15.9307 15.9401 15.9494 15.9588 15.9682 15.9775 15.9869 15.9964 16.0058 16.0152 16.0247 16.0341 16.0436 12.4148 12.4918 12.5698 12.6488 12.7287 12.8097 12.8917 8.10257 7.13855 13.1442 13.2306 13.3181 13.4068 13.4966 13.5877 13.0227 13.0839 13.1456 13.208 13.2709 13.3344 13.3986 13.4633 13.5287 13.5948 13.6614 13.7288 13.791 13.8137 13.8364 13.8592 13.3706 13.5278 13.6888 13.8537 13.9742 13.9975 14.0208 14.0442 14.0676 14.0912 14.1148 14.1385 14.1623 14.1862 14.2101 14.2342 14.2583 14.2825 14.3068 14.3311 14.3556 11.4874 11.6195 11.7547 11.8931 12.0348 12.1799 12.3286 12.4809 20 20 20 20 20 20 12.9151 12.9456 12.9761 13.0068 13.0377 13.0687 13.0998 13.1311 13.1625 13.1941 13.2259 13.2578 13.2898 13.322 13.3544 13.3869 13.4196 13.4524 12.8699 12.8614 12.8529 11.4849 12.6323 12.8275 13.6869 13.721 14.6253 14.597 14.5687 2.23374 2.22914 2.22455 2.21998 2.21543 2.20776 2.19945 2.19121 2.18778 2.18757 2.18735 2.18714 2.18692 2.18671 2.18649 2.18572 2.1844 2.18308 2.18176 2.18045 2.17913 2.17782 2.17725 2.18083 2.18441 2.18801 2.19162 2.19524 2.19744 2.19946 2.20149 2.20352 2.20555 2.20759 2.23899 2.25301 14.018 13.9755 13.9332 13.8912 13.8494 13.8079 13.7666 13.7256 13.6848 13.6443 13.604 13.5639 13.524 13.4844 13.4451 13.4059 13.367 13.3283 13.2899 14.4761 14.4354 14.395 14.3548 14.3148 14.2751 14.2355 14.1962 14.1571 14.1182 14.0796 14.0411 14.0028 13.9648 20 20 14.8309 14.7872 14.7437 13.3495 13.3583 13.3671 13.3759 13.3847 13.3935 13.4023 13.4111 13.42 13.4289 13.4377 13.4466 13.4555 13.4644 13.4733 13.4823 13.4912 13.5002 13.5091 13.5181 13.4624 13.4024 13.5451 13.5541 13.5632 13.5722 12.7448 12.7179 12.6912 12.6645 12.638 12.6115 12.5852 12.559 12.5329 12.5069 12.481 12.4552 12.4296 12.404 12.3785 12.3532 12.3279 12.3028 12.2777 12.2528 12.2279 12.2032 12.1785 12.154 12.1295 12.1052 12.0809 12.0568 12.0327 12.0087 11.9849 11.9611 11.9374 11.9138 11.8903 11.867 11.8436 11.8204 11.7973 11.7743 11.7513 11.7285 11.7057 12.6909 12.9378 13.1945 20 20 20 20 20 20 20 20 20 20 20 20 20 20 11.4923 11.1601 11.1895 11.219 11.2486 11.2784 11.3084 11.3385 11.3688 11.3907 11.404 11.4173 11.4259 11.4284 11.5128 11.5149 11.5171 11.5193 11.5214 11.5236 11.5258 11.528 11.5301 11.5323 11.5345 11.5367 11.5389 11.541 11.5432
5.6369 5.63574 5.63458 5.63342 5.62837 5.4476 5.44662 5.44564 5.44467 5.44369 5.44271 5.44174 5.44076 5.43979 5.43881 5.43784 5.43687 5.43589 5.43492 5.43395 5.43297 5.432 5.43103 5.43006 5.4281 5.4254 5.42269 5.42 5.4173 5.41461 5.41192 5.40923 5.41084 5.42277 5.43475 5.44678 5.45887 5.471 5.4832 5.49544 5.50775 5.5201 5.53252 5.54499 5.55751 5.56741 5.57728 5.58719 5.59713 5.6071 5.61712 5.62716 5.63725 5.64737 5.65753 5.66772 5.67795 5.68821 5.69852 5.70886 5.71924 5.72966 5.74011 5.7506 5.76114 5.77171 5.78232 5.79296 5.80365 5.81438 5.82515 5.83595 5.84397 5.84996 5.85597 5.86199 5.86802 5.93497 6.04951 6.15933 18.7468 18.7273 18.7079 18.6886 18.6692 18.643 18.588 18.5334 18.479 18.4771 18.4756 18.4742 18.4727 18.4713 18.4698 15.8316 15.8409 15.8501 15.8594 15.8686 15.8779 15.8872 15.8965 15.9058 15.9151 15.9244 15.9338 15.9431 15.9525 15.9618 15.9712 15.9806 15.99 15.9994 16.0089 16.0183 16.0277 12.4129 12.4899 12.5679 12.6468 12.7267 12.8077 7.85902 12.9728 13.0569 13.1421 13.2285 13.3159 13.0397 13.4944 13.5854 13.6777 13.0678 13.1294 13.1916 13.2544 13.3178 13.3817 13.4463 13.5116 13.5774 13.6439 13.7111 13.7649 13.7875 13.8101 13.8328 13.8556 13.5007 13.661 13.8252 13.9474 13.9705 13.9938 14.0171 14.0405 14.0639 14.0875 14.1111 14.1348 14.1586 14.1824 14.2063 14.2304 14.2545 14.2786 14.3029 14.3273 14.3517 12.5333 14.4008 11.549 11.6825 11.8192 11.9592 12.1024 12.2492 12.3995 12.5536 20 20 20 12.897 12.9273 12.9578 12.9884 13.0192 13.0501 13.0811 13.1123 13.1437 13.1752 13.2068 13.2386 13.2706 13.3027 13.335 13.3674 13.4 13.4327 12.8865 12.878 12.8695 12.861 12.2007 12.844 13.6665 13.7006 13.7348 14.5774 14.5492 2.23376 2.22915 2.22457 2.22 2.21545 2.20754 2.19924 2.191 2.18779 2.18758 2.18736 2.18715 2.18693 2.18672 2.1865 2.18563 2.1843 2.18299 2.18167 2.18035 2.17904 2.17772 2.17727 2.18084 2.18442 2.18802 2.19163 2.19525 2.19733 2.19935 2.20138 2.20341 2.20545 2.20748 2.23865 2.25266 13.9867 13.9444 13.9023 13.8604 13.8188 13.7775 13.7364 13.6956 13.6549 13.6146 13.5744 13.5345 13.4949 13.4555 13.4163 13.3773 13.3385 13.3 13.2617 14.4577 14.4171 14.3768 14.3367 14.2968 14.2572 14.2177 14.1785 14.1395 14.1007 14.0621 14.0238 13.9856 13.9477 20 20 14.8166 14.773 14.7296 14.6865 13.3436 13.3524 13.3612 13.3699 13.3787 13.3875 13.3964 13.4052 13.414 13.4229 13.4318 13.4406 13.4495 13.4584 13.4673 13.4762 13.4852 13.4941 13.4731 13.4129 13.521 13.53 13.539 13.5481 12.7534 12.7265 12.6997 12.673 12.6464 12.6199 12.5936 12.5673 12.5412 12.5152 12.4892 12.4634 12.4377 12.4121 12.3866 12.3612 12.3359 12.3108 12.2857 12.2607 12.2358 12.211 12.1864 12.1618 12.1373 12.1129 12.0886 12.0644 12.0404 12.0164 11.9925 11.9687 11.945 11.9213 11.8978 11.8744 11.8511 11.8278 11.8047 11.7816 11.7586 11.7357 11.713 12.2799 12.5109 12.7507 13 13.2591 20 20 20 20 20 20 20 20 20 20 20 20 20 20 11.4941 11.1555 11.1848 11.2143 11.2439 11.2737 11.3036 11.3337 11.364 11.3922 11.4055 11.4188 11.425 11.4276 11.501 11.5031 11.5053 11.5075 11.5096 11.5118 11.514 11.5162 11.5183 11.5205 11.5227 11.5249 11.527 11.5292
5.639 5.63784 5.63667 5.63551 5.62488 5.44913 5.44815 5.44717 5.44619 5.44522 5.44424 5.44326 5.44229 5.44131 5.44034 5.43936 5.43839 5.43742 5.43644 5.43547 5.4345 5.43352 5.43255 5.43158 5.42897 5.42626 5.42356 5.42086 5.41816 5.41547 5.41278 5.41009 5.41329 5.42522 5.43721 5.44926 5.46135 5.4735 5.48571 5.49797 5.51028 5.52265 5.53507 5.54755 5.55929 5.56913 5.57901 5.58892 5.59887 5.60885 5.61887 5.62892 5.63901 5.64914 5.6593 5.6695 5.67974 5.69001 5.70032 5.71067 5.72105 5.73148 5.74194 5.75244 5.76298 5.77355 5.78417 5.79483 5.80552 5.81625 5.82703 5.8361 5.84208 5.84807 5.85407 5.86009 5.86611 5.97296 6.08899 6.15917 18.7268 18.7074 18.688 18.6687 18.6494 18.6052 18.5504 18.496 18.4759 18.4744 18.473 18.4715 18.4701 18.4686 18.4587 18.4398 15.8254 15.8347 15.8439 15.8531 15.8624 15.8716 15.8809 15.8902 15.8995 15.9088 15.9181 15.9275 15.9368 15.9462 15.9555 15.9649 15.9743 15.9837 15.9931 16.0025 16.0119 16.0214 12.488 12.5659 12.6448 12.7248 7.62969 12.8877 12.9707 13.0548 13.14 13.2263 13.3138 13.4024 13.4922 13.5832 13.6754 13.0518 13.1133 13.1753 13.2379 13.3011 13.3649 13.4294 13.4944 13.5601 13.6265 13.6935 13.7389 13.7614 13.7839 13.8065 13.8292 13.4736 13.6333 13.7969 13.9207 13.9437 13.9669 13.9901 14.0134 14.0368 14.0602 14.0837 14.1073 14.131 14.1548 14.1786 14.2026 14.2266 14.2506 14.2748 14.2991 14.3234 12.3265 12.8896 14.3969 14.4216 14.4463 11.6112 11.7463 11.8845 12.0259 12.1708 12.3193 12.4713 12.6272 20 12.9091 12.9395 12.97 13.0007 13.0315 13.0625 13.0936 13.1249 13.1563 13.1878 13.2196 13.2514 13.2834 13.3156 13.3479 13.3804 13.4131 12.9033 12.8947 12.8862 12.8777 11.7982 12.8607 13.6462 13.6801 13.7142 13.7485 14.5298 2.23378 2.22917 2.22458 2.22002 2.21547 2.20733 2.19902 2.19078 2.1878 2.18759 2.18737 2.18716 2.18694 2.18673 2.18651 2.18553 2.18421 2.18289 2.18157 2.18026 2.17894 2.17763 2.17728 2.18085 2.18444 2.18804 2.19164 2.19521 2.19723 2.19925 2.20128 2.20331 2.20534 2.20738 2.23831 2.25232 13.9555 13.9134 13.8715 13.8298 13.7884 13.7472 13.7063 13.6656 13.6252 13.585 13.5451 13.5053 13.4658 13.4266 13.3876 13.3487 13.3102 13.2718 14.48 14.4393 14.3988 14.3586 14.3186 14.2789 14.2393 14.2 14.1608 14.1219 14.0832 14.0448 14.0065 13.9684 13.9306 20 14.8461 14.8023 14.7588 14.7155 14.6725 14.6297 13.3377 13.3465 13.3553 13.364 13.3728 13.3816 13.3904 13.3992 13.4081 13.4169 13.4258 13.4346 13.4435 13.4524 13.4613 13.4702 13.4792 13.4235 13.3638 13.506 13.515 13.524 12.762 12.735 12.7082 12.6815 12.6549 12.6284 12.602 12.5757 12.5495 12.5234 12.4975 12.4716 12.4459 12.4203 12.3947 12.3693 12.344 12.3188 12.2936 12.2686 12.2437 12.2189 12.1942 12.1696 12.1451 12.1207 12.0964 12.0721 12.048 12.024 12.0001 11.9762 11.9525 11.9289 11.9053 11.8819 11.8585 11.8352 11.812 11.7889 11.7659 11.743 11.7202 20 12.1112 12.3358 12.5689 12.8111 13.0627 20 20 20 20 20 20 20 20 20 20 20 20 20 20 20 11.459 11.1509 11.1802 11.2096 11.2392 11.269 11.2989 11.329 11.3592 11.3896 11.407 11.4203 11.4242 11.4267 11.4892 11.4914 11.4936 11.4957 11.4979 11.5 11.5022 11.5044 11.5065 11.5087 11.5109 11.5131 11.5152
5.64109 5.63993 5.63877 5.63761 5.6214 5.45066 5.44968 5.4487 5.44772 5.44674 5.44577 5.44479 5.44381 5.44284 5.44186 5.44089 5.43991 5.43894 5.43796 5.43699 5.43602 5.43504 5.43407 5.43254 5.42983 5.42712 5.42442 5.42172 5.41902 5.41633 5.41364 5.41095 5.41573 5.42768 5.43968 5.45174 5.46384 5.476 5.48822 5.50049 5.51281 5.5252 5.53763 5.55012 5.561 5.57085 5.58073 5.59065 5.6006 5.61059 5.62062 5.63068 5.64078 5.65091 5.66108 5.67128 5.68153 5.69181 5.70212 5.71248 5.72287 5.7333 5.74377 5.75428 5.76482 5.7754 5.78603 5.79669 5.80739 5.81813 5.82826 5.83422 5.84019 5.84618 5.85218 5.85819 5.89833 6.01145 6.12899 6.15901 18.7068 18.6874 18.6681 18.6488 18.6223 18.5675 18.5129 18.4747 18.4732 18.4718 18.4703 18.4689 18.4674 18.4581 18.4392 18.4204 18.4016 15.8192 15.8284 15.8377 15.8469 15.8562 15.8654 15.8747 15.884 15.8932 15.9025 15.9119 15.9212 15.9305 15.9399 15.9492 15.9586 15.968 15.9774 15.9868 15.9962 16.0056 12.4861 12.564 12.6429 7.41336 12.8037 12.8856 12.9686 13.0527 13.1379 13.2242 13.3116 13.4002 13.4899 13.5809 13.6731 13.7666 13.0971 13.159 13.2215 13.2845 13.3482 13.4125 13.4774 13.5429 13.6091 13.6759 13.713 13.7354 13.7578 13.7803 13.8029 13.4467 13.6057 13.7686 13.8941 13.917 13.9401 13.9632 13.9864 14.0097 14.0331 14.0565 14.08 14.1036 14.1273 14.151 14.1749 14.1988 14.2228 14.2468 14.271 14.2952 14.3195 12.671 14.3684 14.393 14.4177 14.4424 14.4672 14.4921 11.6742 11.8107 11.9504 12.0935 12.24 12.3901 12.544 12.7017 12.9517 12.9823 13.013 13.0439 13.0749 13.1061 13.1374 13.1689 13.2005 13.2323 13.2642 13.2963 13.3286 13.3609 13.3935 12.92 12.9115 12.9029 12.8944 11.4214 12.5554 12.8688 13.6597 13.6938 13.728 13.7623 2.23379 2.22919 2.2246 2.22003 2.21548 2.20711 2.19881 2.19057 2.18781 2.1876 2.18738 2.18717 2.18695 2.18674 2.18652 2.18543 2.18411 2.18279 2.18147 2.18016 2.17884 2.17753 2.17729 2.18087 2.18445 2.18805 2.19166 2.1951 2.19712 2.19914 2.20117 2.2032 2.20524 2.20727 2.23797 2.25197 2.26616 10.931 10.9319 10.9328 10.9337 13.7171 13.6764 13.6359 13.5956 13.5556 13.5158 13.4763 13.4369 13.3978 13.359 13.3203 13.2819 13.2437 14.4615 14.421 14.3806 14.3405 14.3006 14.2609 14.2215 14.1822 14.1432 14.1044 14.0658 14.0274 13.9893 13.9513 20 20 14.8317 14.788 14.7446 14.7014 14.4106 14.3074 14.2056 13.3318 13.3406 13.3493 13.3581 13.3669 13.3757 13.3845 13.3933 13.4021 13.411 13.4198 13.4287 13.4375 13.4464 13.4553 13.4341 13.3743 13.4821 13.491 13.5 12.7706 12.7436 12.7167 12.69 12.6633 12.6368 12.6104 12.584 12.5578 12.5317 12.5057 12.4799 12.4541 12.4284 12.4029 12.3774 12.352 12.3268 12.3016 12.2766 12.2516 12.2268 12.2021 12.1774 12.1529 12.1284 12.1041 12.0798 12.0557 12.0316 12.0077 11.9838 11.9601 11.9364 11.9128 11.8893 11.8659 11.8426 11.8194 11.7963 11.7733 11.7503 11.7275 20 20 20 12.1657 12.3923 12.6276 12.872 13.1261 20 20 20 20 20 20 20 20 20 20 20 20 20 11.4431 11.4452 11.4474 11.1463 11.1755 11.2049 11.2345 11.2643 11.2941 11.3242 11.3544 11.3848 11.4085 11.4209 11.4234 11.4259 11.4775 11.4797 11.4818 11.484 11.4861 11.4883 11.4905 11.4926 11.4948 11.497 11.4991 11.5013
5.64319 5.64203 5.64087 5.63971 5.61792 5.45219 5.45121 5.45023 5.44925 5.44827 5.4473 5.44632 5.44534 5.44437 5.44339 5.44241 5.44144 5.44046 5.43949 5.43851 5.43754 5.43657 5.43559 5.43341 5.4307 5.42799 5.42529 5.42259 5.41989 5.41719 5.4145 5.41181 5.41818 5.43014 5.44215 5.45422 5.46633 5.47851 5.49073 5.50302 5.51535 5.52774 5.54019 5.5527 5.56272 5.57257 5.58246 5.59238 5.60234 5.61234 5.62237 5.63244 5.64254 5.65268 5.66285 5.67307 5.68332 5.6936 5.70393 5.71429 5.72469 5.73512 5.7456 5.75611 5.76666 5.77726 5.78788 5.79855 5.80926 5.82001 5.82638 5.83233 5.8383 5.84429 5.85028 5.85629 5.93586 6.05044 6.13686 6.15885 18.6869 18.6675 18.6483 18.629 18.5846 18.5299 18.4756 18.472 18.4706 18.4691 18.4677 18.4662 18.4576 18.4387 18.4199 18.4011 18.3824 18.3637 15.813 15.8222 15.8315 15.8407 15.8499 15.8592 15.8684 15.8777 15.887 15.8963 15.9056 15.9149 15.9242 15.9336 15.9429 15.9523 15.9616 15.971 15.9804 15.9898 15.9992 8.19339 7.20896 12.7208 12.8017 12.8836 12.9665 13.0506 13.1357 13.222 13.3094 13.3979 13.4877 13.5786 13.6708 13.7643 13.0811 13.1428 13.2051 13.268 13.3315 13.3956 13.4603 13.5257 13.5917 13.6583 13.6872 13.7094 13.7318 13.7543 13.7768 13.7994 13.5783 13.7405 13.8676 13.8904 13.9134 13.9364 13.9596 13.9827 14.006 14.0294 14.0528 14.0763 14.0999 14.1235 14.1473 14.1711 14.195 14.219 14.243 14.2672 14.2914 12.4597 13.0352 14.3646 14.3891 14.4138 14.4385 14.4633 14.4882 20 20 11.7378 11.8758 12.0171 12.1618 12.31 12.4618 12.6175 12.9946 13.0254 13.0563 13.0874 13.1186 13.15 13.1816 13.2132 13.2451 13.2771 13.3092 13.3415 13.374 13.4066 12.9283 12.9197 12.9111 12.9026 12.1292 12.8855 13.6394 13.6734 13.7074 13.7417 2.23381 2.2292 2.22462 2.22005 2.21526 2.2069 2.1986 2.19036 2.18783 2.18761 2.18739 2.18718 2.18696 2.18675 2.18653 2.18534 2.18401 2.1827 2.18138 2.18006 2.17875 2.17744 2.17731 2.18088 2.18447 2.18806 2.19167 2.195 2.19702 2.19904 2.20107 2.2031 2.20513 2.20717 2.23763 2.25163 2.26581 10.8482 10.8491 10.85 10.8509 10.8518 10.8526 10.8535 10.8544 10.8553 10.8562 10.8571 10.8579 10.8588 13.3305 13.292 13.2538 14.4839 14.4432 14.4027 14.3625 14.3224 14.2827 14.2431 14.2037 14.1646 14.1256 14.0869 14.0484 14.0101 13.9721 13.9342 14.6104 14.5043 14.3997 14.2966 14.195 14.0948 13.996 13.8987 13.8026 13.7371 13.326 13.3347 13.3435 13.3522 13.361 13.3698 13.3786 13.3874 13.3962 13.405 13.4139 13.4227 13.4316 13.4404 13.3848 13.4582 13.4671 13.4761 12.7792 12.7522 12.7253 12.6985 12.6718 12.6452 12.6188 12.5924 12.5662 12.54 12.514 12.4881 12.4623 12.4366 12.411 12.3855 12.3601 12.3348 12.3096 12.2846 12.2596 12.2347 12.2099 12.1853 12.1607 12.1362 12.1118 12.0876 12.0634 12.0393 12.0153 11.9914 11.9676 11.9439 11.9203 11.8968 11.8734 11.85 11.8268 11.8037 11.7806 11.7576 11.7347 20 20 20 20 20 12.2206 12.4493 12.6868 12.9335 13.19 20 20 20 20 20 20 20 20 20 20 20 11.4272 11.4293 11.4314 11.4336 11.4357 11.1416 11.1709 11.2003 11.2298 11.2595 11.2894 11.3194 11.3496 11.38 11.41 11.42 11.4226 11.4251 11.4658 11.4679 11.4701 11.4723 11.4744 11.4766 11.4787 11.4809 11.483 11.4852 11.4874
5.64529 5.64413 5.64297 5.6418 5.61445 5.45372 5.45274 5.45176 5.45078 5.4498 5.44882 5.44785 5.44687 5.44589 5.44492 5.44394 5.44296 5.44199 5.44101 5.44004 5.43906 5.43809 5.43699 5.43427 5.43156 5.42886 5.42615 5.42345 5.42075 5.41805 5.41536 5.41267 5.42063 5.4326 5.44462 5.4567 5.46883 5.48101 5.49325 5.50554 5.51789 5.53029 5.54275 5.55461 5.56443 5.57429 5.58419 5.59412 5.60409 5.61409 5.62412 5.6342 5.64431 5.65445 5.66463 5.67485 5.68511 5.6954 5.70573 5.7161 5.7265 5.73695 5.74743 5.75795 5.76851 5.77911 5.78974 5.80042 5.81113 5.81855 5.8245 5.83045 5.83642 5.84239 5.84838 5.86215 5.97387 6.08993 6.1367 6.15869 18.667 18.6477 18.6285 18.6017 18.547 18.4926 18.4708 18.4694 18.4679 18.4665 18.465 18.457 18.4382 18.4193 18.4006 18.3818 18.3631 18.3445 18.3258 15.8068 15.816 15.8252 15.8345 15.8437 15.8529 15.8622 15.8715 15.8807 15.89 15.8993 15.9086 15.9179 15.9273 15.9366 15.946 15.9553 15.9647 15.9741 7.94444 12.5601 12.6389 12.7188 12.7996 12.8815 12.9645 13.0485 13.1336 13.2199 13.3072 13.3957 13.4854 13.5764 13.6685 13.7619 13.8037 13.1266 13.1887 13.2515 13.3148 13.3788 13.4433 13.5085 13.5744 13.6393 13.6614 13.6836 13.7059 13.7283 13.7507 13.7732 13.5509 13.7125 13.8412 13.8639 13.8868 13.9098 13.9328 13.9559 13.9791 14.0023 14.0257 14.0491 14.0726 14.0961 14.1198 14.1435 14.1673 14.1912 14.2152 14.2392 14.2633 14.2876 12.8117 14.3362 14.3607 14.3852 14.4099 14.4346 14.4594 14.4842 20 20 20 11.6659 11.8021 11.9417 12.0845 12.2308 12.3807 12.5344 12.6918 13.0688 13.0999 13.1312 13.1626 13.1942 13.226 13.2579 13.2899 13.3221 13.3545 13.387 12.9451 12.9365 12.9279 12.9193 11.7313 12.9022 12.8937 13.653 13.687 13.7212 2.23383 2.22922 2.22463 2.22007 2.21504 2.20668 2.19838 2.19015 2.18784 2.18762 2.18741 2.18719 2.18697 2.18676 2.18654 2.18524 2.18392 2.1826 2.18128 2.17997 2.17865 2.17734 2.17732 2.1809 2.18448 2.18808 2.19169 2.19489 2.19691 2.19893 2.20096 2.20299 2.20502 2.20706 2.23729 2.25129 2.26546 10.7667 10.7675 10.7684 10.7693 10.7702 10.771 10.7719 10.7728 10.7736 10.7745 10.7754 10.7763 10.7771 10.778 10.7789 10.7797 10.7806 10.7815 10.7824 10.7832 10.7841 10.785 14.2252 14.186 14.1469 14.1081 14.0695 14.0311 13.9929 13.9549 13.9171 14.1844 14.0843 13.9857 13.8885 13.7926 13.698 13.6895 13.6929 13.6962 13.6996 13.7029 13.3201 13.3288 13.3376 13.3463 13.3551 13.3638 13.3726 13.3814 13.3902 13.3991 13.4079 13.4167 13.3953 13.4345 13.4433 13.4522 12.7879 12.7608 12.7338 12.707 12.6803 12.6537 12.6272 12.6008 12.5745 12.5483 12.5223 12.4963 12.4705 12.4448 12.4191 12.3936 12.3682 12.3429 12.3176 12.2925 12.2675 12.2426 12.2178 12.1931 12.1685 12.144 12.1196 12.0953 12.0711 12.047 12.0229 11.999 11.9752 11.9515 11.9278 11.9043 11.8808 11.8575 11.8342 11.811 11.7879 11.7649 11.742 20 20 20 20 20 20 12.0535 12.276 12.5068 12.7465 12.9956 13.2546 20 20 20 20 20 20 20 20 20 11.4113 11.4134 11.4156 11.4177 11.4198 11.422 11.4241 11.137 11.1663 11.1956 11.2252 11.2548 11.2847 11.3147 11.3448 11.3752 11.4056 11.4192 11.4217 11.4243 11.4541 11.4563 11.4584 11.4606 11.4627 11.4649 11.467 11.4692 11.4713 11.4735
5.6474 5.64623 5.64507 5.6439 5.61098 5.45525 5.45427 5.45329 5.45231 5.45133 5.45035 5.44938 5.4484 5.44742 5.44644 5.44547 5.44449 5.44351 5.44254 5.44156 5.44059 5.43961 5.43785 5.43514 5.43243 5.42972 5.42702 5.42431 5.42161 5.41892 5.41622 5.41353 5.42308 5.43507 5.4471 5.45919 5.47133 5.48352 5.49577 5.50807 5.52043 5.53285 5.54532 5.55632 5.56615 5.57602 5.58592 5.59586 5.60583 5.61584 5.62588 5.63596 5.64607 5.65623 5.66641 5.67664 5.6869 5.6972 5.70754 5.71791 5.72832 5.73877 5.74926 5.75979 5.77035 5.78096 5.7916 5.80228 5.81075 5.81668 5.82262 5.82857 5.83453 5.8405 5.84649 5.89921 6.01237 6.11471 6.13654 18.6664 18.6471 18.6279 18.6087 18.564 18.5095 18.4696 18.4682 18.4667 18.4653 18.4638 18.4565 18.4376 18.4188 18.4 18.3813 18.3626 18.3439 18.3253 18.3067 18.2882 15.8006 15.8098 15.819 15.8283 15.8375 15.8467 15.856 15.8652 15.8745 15.8838 15.8931 15.9024 15.9117 15.921 15.9303 15.9397 15.949 7.71017 15.9678 12.5581 12.637 12.7168 12.7976 12.8795 12.9624 13.0464 13.1315 13.2177 13.305 13.3935 13.4832 13.5741 13.6662 13.7596 13.8115 13.1104 13.1724 13.235 13.2982 13.362 13.4264 13.4914 13.5571 13.6234 13.6358 13.6579 13.6801 13.7024 13.7247 13.7472 13.7696 13.6846 13.8148 13.8376 13.8603 13.8832 13.9061 13.9292 13.9522 13.9754 13.9987 14.022 14.0454 14.0688 14.0924 14.116 14.1397 14.1635 14.1874 14.2114 14.2354 14.2595 12.5957 13.1842 14.3324 14.3568 14.3813 14.406 14.4307 14.4554 14.4803 20 20 20 20 20 11.7294 11.8672 12.0082 12.1527 12.3007 12.4523 12.6077 12.7671 13.1438 13.1753 13.2069 13.2387 13.2707 13.3028 13.3351 13.3675 12.962 12.9534 12.9448 12.9362 12.9276 12.4794 12.9104 13.6327 13.6666 13.7007 2.23384 2.22924 2.22465 2.22008 2.21482 2.20647 2.19817 2.18993 2.18785 2.18763 2.18742 2.1872 2.18699 2.18677 2.18646 2.18514 2.18382 2.1825 2.18119 2.17987 2.17856 2.17724 2.17734 2.18091 2.1845 2.18809 2.1917 2.19479 2.19681 2.19883 2.20086 2.20289 2.20492 2.20696 2.23695 2.25094 2.26511 10.6864 10.6872 10.6881 10.6889 10.6898 10.6906 10.6915 10.6924 10.6932 10.6941 10.6949 10.6958 10.6966 10.6975 10.6984 10.6992 10.7001 10.7009 10.7018 10.7027 10.7035 10.7044 10.7052 10.7061 10.707 10.7078 10.7087 10.7095 10.7104 10.7113 10.7121 13.7825 13.6881 13.6389 13.6423 13.6456 13.6489 13.6522 13.6556 13.6589 13.6622 13.6656 13.6689 13.3142 13.3229 13.3317 13.3404 13.3492 13.3579 13.3667 13.3755 13.3843 13.3931 13.4019 13.4108 13.4196 13.4285 12.7965 12.7694 12.7424 12.7155 12.6888 12.6621 12.6356 12.6092 12.5829 12.5567 12.5306 12.5046 12.4787 12.4529 12.4273 12.4017 12.3763 12.3509 12.3257 12.3005 12.2755 12.2505 12.2257 12.201 12.1763 12.1518 12.1274 12.103 12.0788 12.0546 12.0306 12.0066 11.9828 11.959 11.9353 11.9118 11.8883 11.8649 11.8416 11.8184 11.7953 11.7723 11.7493 20 20 20 20 20 20 20 20 12.1074 12.3319 12.5649 12.8069 13.0583 13.1753 12.4148 12.3978 12.3809 12.364 12.3471 12.3303 12.3136 11.3955 11.3976 11.3997 11.4018 11.404 11.4061 11.4082 11.4104 11.4125 11.1324 11.1616 11.191 11.2205 11.2501 11.2799 11.3099 11.3401 11.3704 11.4008 11.4184 11.4209 11.4234 11.4425 11.4446 11.4467 11.4489 11.451 11.4532 11.4553 11.4575 11.4596
